# .PCD v0.7 - Point Cloud Data file format
VERSION 0.7
FIELDS x y z intensity
SIZE 4 4 4 4
TYPE F F F F
COUNT 1 1 1 1
WIDTH 1526
HEIGHT 1
VIEWPOINT 0 0 0 1 0 0 0
POINTS 1526
DATA ascii
0 0 0 0
0 0 0 0
0 0 0 0
0 0 0 0
0 0 0 0
0 0 0 0
0 0 0 0
0 0 0 0
0 0 0 0
0 0 0 0
0 0 0 0
0 0 0 0
0 0 0 0
0 0 0 0
0 0 0 0
0 0 0 0
0 0 0 0
0 0 0 0
0 0 0 0
0 0 0 0
0 0 0 0
0 0 0 0
0 0 0 0
0 0 0 0
0 0 0 0
0 0 0 0
0 0 0 0
0 0 0 0
0 0 0 0
0 0 0 0
0 0 0 0
0 0 0 0
0 0 0 0
1.094 -3.608 -0.47299999 3.799767
1.098 -3.5799999 -0.46900001 3.7738528
1.1109999 -3.582 -0.47 3.779675
1.122 -3.5799999 -0.47 3.7810292
1.1160001 -3.5220001 -0.461 3.7232325
1.127 -3.5190001 -0.461 3.7237093
1.1440001 -3.5320001 -0.46399999 3.7415311
1.156 -3.513 -0.46200001 3.7270563
1.166 -3.506 -0.461 3.7234545
1.171 -3.4860001 -0.458 3.7058334
1.179 -3.474 -0.45699999 3.6969671
0 0 0 0
0 0 0 0
1.223 -3.4779999 -0.46000001 3.7153482
1.165 -3.283 -0.42699999 3.5096498
1.159 -3.2349999 -0.41999999 3.4619222
0 0 0 0
1.1670001 -3.1789999 -0.412 3.4114032
1.166 -3.148 -0.40700001 3.3815839
1.187 -3.1719999 -0.412 3.4117877
1.2 -3.148 -0.40900001 3.393698
1.217 -3.1619999 -0.412 3.4130743
1.2359999 -3.1949999 -0.41800001 3.4511511
1.234 -3.1600001 -0.41299999 3.4174442
1.255 -3.1559999 -0.414 3.4215138
1.255 -3.128 -0.41 3.3952186
1.27 -3.1370001 -0.412 3.4093127
1.275 -3.1199999 -0.41 3.3953092
1.285 -3.131 -0.412 3.4094179
0 0 0 0
0 0 0 0
0 0 0 0
0 0 0 0
0 0 0 0
0 0 0 0
0 0 0 0
0 0 0 0
0 0 0 0
0 0 0 0
0 0 0 0
0 0 0 0
0 0 0 0
0 0 0 0
0 0 0 0
0 0 0 0
0 0 0 0
0 0 0 0
0 0 0 0
0 0 0 0
0 0 0 0
0 0 0 0
0 0 0 0
0 0 0 0
0 0 0 0
0 0 0 0
0 0 0 0
0 0 0 0
0 0 0 0
0 0 0 0
0 0 0 0
0 0 0 0
0 0 0 0
0 0 0 0
0 0 0 0
0 0 0 0
0 0 0 0
0 0 0 0
0 0 0 0
0 0 0 0
0 0 0 0
0 0 0 0
0 0 0 0
0 0 0 0
0 0 0 0
0 0 0 0
0 0 0 0
0 0 0 0
0 0 0 0
0 0 0 0
0 0 0 0
0 0 0 0
0 0 0 0
0 0 0 0
0 0 0 0
0 0 0 0
0 0 0 0
0 0 0 0
0 0 0 0
0 0 0 0
0 0 0 0
0 0 0 0
0 0 0 0
0 0 0 0
0 0 0 0
0 0 0 0
0 0 0 0
2.247 -3.0880001 -0.48100001 3.8491707
5.5180001 -7.5479999 -1.125 9.4173374
5.553 -7.5219998 -1.125 9.4171076
5.585 -7.5159998 -1.127 9.431469
5.6139998 -7.506 -1.1289999 9.4409571
5.6440001 -7.4959998 -1.13 9.4510136
5.6589999 -7.4679999 -1.128 9.4375677
5.7069998 -7.4580002 -1.131 9.4588995
5.724 -7.4310002 -1.13 9.4477959
5.7519999 -7.4190001 -1.131 9.4554863
5.776 -7.402 -1.131 9.4567928
5.7979999 -7.3829999 -1.131 9.4554033
5.8179998 -7.3600001 -1.13 9.4496365
5.862 -7.3449998 -1.132 9.4653835
5.882 -7.322 -1.131 9.4598503
5.914 -7.3150001 -1.133 9.4746141
5.9289999 -7.2859998 -1.132 9.4615145
5.9520001 -7.2670002 -1.132 9.4613438
5.9949999 -7.25 -1.133 9.4755592
6.0190001 -7.2329998 -1.1339999 9.4779005
6.0300002 -7.1999998 -1.131 9.4593897
6.0560002 -7.1859999 -1.132 9.4654722
6.0749998 -7.1620002 -1.131 9.4593363
6.1290002 -7.1570001 -1.136 9.4909315
6.1500001 -7.1370001 -1.135 9.489336
6.178 -7.1230001 -1.137 9.497241
6.2020001 -7.105 -1.137 9.4994001
6.2340002 -7.0739999 -1.137 9.4972105
6.165 -6.9520001 -1.117 9.3586979
6.1799998 -6.927 -1.158 9.3550358
6.0809999 -6.7740002 -1.132 9.1731701
5.9429998 -6.5380001 -1.092 8.9026489
5.869 -6.4369998 -1.074 8.7768784
5.8720002 -6.4000001 -1.071 8.7514238
5.8920002 -6.381 -1.071 8.7509928
5.8870001 -6.2969999 -1.061 8.6853151
5.9039998 -6.2750001 -1.0599999 8.6808081
5.921 -6.2729998 -1.062 8.6911802
5.9239998 -6.237 -1.058 8.6667929
5.9450002 -6.2199998 -1.059 8.6690769
5.9070001 -6.1030002 -1.0420001 8.5571623
5.8979998 -6.0560002 -1.0369999 8.51686
5.9050002 -6.0440001 -1.036 8.5130644
5.8779998 -5.9790001 -1.027 8.4471331
5.915 -5.9419999 -1.027 8.4468517
5.9039998 -5.8940001 -1.021 8.4046946
5.8790002 -5.8330002 -1.012 8.3433018
5.869 -5.7859998 -1.006 8.3027105
5.8769999 -5.7389998 -1.002 8.275219
5.8920002 -5.7179999 -1.001 8.2712269
5.8979998 -5.6890001 -0.99900001 8.2552481
5.9029999 -5.658 -0.99599999 8.2371349
5.9109998 -5.6300001 -0.99400002 8.2234335
5.888 -5.5560002 -0.98400003 8.155117
5.8979998 -5.5310001 -0.98299998 8.1452227
5.8870001 -5.4850001 -0.977 8.1053391
5.888 -5.4520001 -0.97399998 8.0834112
5.895 -5.4239998 -0.972 8.0694227
5.888 -5.3839998 -0.96700001 8.0368576
5.8769999 -5.323 -0.95999998 7.9871807
5.8740001 -5.2880001 -0.95599997 7.9612031
5.8839998 -5.263 -0.95499998 7.9518957
5.8720002 -5.2189999 -0.949 7.9132133
5.8850002 -5.198 -0.949 7.9090476
5.8839998 -5.1479998 -0.94400001 7.874928
5.881 -5.1129999 -0.94 7.8493648
5.8860002 -5.085 -0.93800002 7.8346705
5.8870001 -5.0539999 -0.935 7.81498
5.8730001 -5.0100002 -0.92900002 7.7752991
5.8829999 -4.9710002 -0.92699999 7.7575679
5.8860002 -4.9419999 -0.92500001 7.7410583
5.8649998 -4.8930001 -0.91799998 7.6930099
5.8870001 -4.8800001 -0.91900003 7.7016706
5.881 -4.8439999 -0.91500002 7.6738338
5.8969998 -4.8109999 -0.91399997 7.6652279
0 0 0 0
0 0 0 0
5.8850002 -4.71 -0.903 7.5916228
5.8720002 -4.6399999 -0.89499998 7.5373077
5.8979998 -4.645 -0.89899999 7.5611262
5.8740001 -4.5960002 -0.89099997 7.5113897
5.8790002 -4.5700002 -0.88999999 7.4993095
5.8699999 -4.5339999 -0.88499999 7.4697576
5.868 -4.474 -0.88 7.4313192
5.8959999 -4.4660001 -0.88200003 7.4488854
5.8829999 -4.4419999 -0.87900001 7.4238596
5.882 -4.4070001 -0.92799997 7.4081545
5.8660002 -4.3520002 -0.921 7.3619361
5.875 -4.3299999 -0.92000002 7.3560128
5.8839998 -4.3080001 -0.92000002 7.350287
5.8909998 -4.2849998 -0.91799998 7.342195
5.8920002 -4.257 -0.91600001 7.3264432
5.9130001 -4.23 -0.91600001 7.327723
5.8769999 -4.1760001 -0.90700001 7.2664127
5.8959999 -4.1620002 -0.90799999 7.2738934
5.8850002 -4.1259999 -0.903 7.2437916
5.901 -4.1100001 -0.90399998 7.2478352
5.8909998 -4.0619998 -0.89899999 7.2119288
5.8889999 -4.033 -0.89600003 7.193624
5.8839998 -4.0019999 -0.89300001 7.171813
5.8920002 -3.9809999 -0.89200002 7.1665678
5.888 -3.951 -0.889 7.1462765
5.8920002 -3.927 -0.88700002 7.1360888
5.8709998 -3.8729999 -0.88 7.0882416
5.8829999 -3.8540001 -0.88 7.0878348
5.8740001 -3.822 -0.87599999 7.0625024
5.8920002 -3.8080001 -0.87699997 7.0700541
5.881 -3.7739999 -0.87300003 7.0421138
5.8899999 -3.7409999 -0.87099999 7.0317721
5.8790002 -3.7079999 -0.86699998 7.0045414
5.8839998 -3.6849999 -0.866 6.9964728
5.8800001 -3.6570001 -0.86299998 6.978024
5.8829999 -3.6329999 -0.86199999 6.967885
5.8899999 -3.599 -0.86000001 6.9558969
5.8959999 -3.5780001 -0.85900003 6.9500203
5.902 -3.556 -0.85799998 6.9436951
5.9089999 -3.5339999 -0.85699999 6.9382911
5.9310002 -3.497 -0.85699999 6.9383154
5.921 -3.4790001 -0.85399997 6.9203324
5.9250002 -3.4560001 -0.85299999 6.9121032
5.9429998 -3.4419999 -0.85399997 6.9206882
5.9400001 -3.415 -0.852 6.9044714
5.9419999 -3.3670001 -0.84899998 6.8822126
5.9559999 -3.362 -0.85000002 6.8919864
5.9770002 -3.349 -0.852 6.9040737
6.0679998 -3.3759999 -0.866 6.9977102
6.0100002 -3.2939999 -0.852 6.906261
6.0339999 -3.283 -0.85500002 6.9223022
6.0599999 -3.2720001 -0.85699999 6.9400311
6.0809999 -3.2709999 -0.86000001 6.9582758
6.105 -3.2590001 -0.86299998 6.9740148
6.1760001 -3.2479999 -0.87099999 7.0321493
6.197 -3.234 -0.87300003 7.0444088
6.2350001 -3.2290001 -0.87800002 7.0761962
6.2610002 -3.23 -0.88200003 7.1000667
6.3340001 -3.2179999 -0.89099997 7.1602345
6.3629999 -3.2079999 -0.89399999 7.1818008
6.4050002 -3.204 -0.89999998 7.2180085
6.4429998 -3.198 -0.90399998 7.2495975
6.473 -3.187 -0.90799999 7.2719436
6.5679998 -3.1960001 -0.921 7.3621516
6.599 -3.1860001 -0.92500001 7.3860021
6.6729999 -3.188 -0.88200003 7.4478312
6.6919999 -3.184 -0.884 7.4633889
6.7490001 -3.1849999 -0.89200002 7.5159097
6.7909999 -3.178 -0.89700001 7.5512891
6.9310002 -3.191 -0.91600001 7.68507
6.967 -3.1800001 -0.92000002 7.7134876
6.973 -3.1570001 -0.92000002 7.7094603
7.0229998 -3.1659999 -0.92699999 7.7592144
7.053 -3.1530001 -0.93000001 7.7814598
7.151 -3.142 -0.94300002 7.8675418
8.6009998 -3.7409999 -1.13 9.4471779
8.6020002 -3.7090001 -1.128 9.4352255
8.5740004 -3.665 -1.122 9.3917303
8.5609999 -3.6429999 -1.119 9.3709297
8.5430002 -3.6040001 -1.114 9.3387718
8.5469999 -3.5739999 -1.113 9.33078
8.6339998 -3.5469999 -1.123 9.4015045
0 0 0 0
8.5749998 -3.46 -1.1109999 9.3132458
8.5950003 -3.4519999 -1.113 9.3289394
8.632 -3.404 -1.115 9.3456869
8.6879997 -3.395 -1.122 9.3950119
8.7279997 -3.3789999 -1.127 9.4268627
8.7650003 -3.362 -1.131 9.4555511
8.8219995 -3.368 -1.1390001 9.5114889
8.934 -3.3469999 -1.152 9.6096754
9 -3.339 -1.161 9.6693764
9.0600004 -3.3299999 -1.168 9.7230005
9.1359997 -3.325 -1.178 9.793355
9.3000002 -3.336 -1.2 9.9528341
10.513 -3.737 -1.381 11.242575
10.531 -3.7060001 -1.382 11.249281
10.508 -3.661 -1.377 11.212365
10.512 -3.6259999 -1.376 11.204615
10.518 -3.5910001 -1.375 11.198849
10.514 -3.5339999 -1.372 11.176571
10.522 -3.5 -1.3710001 11.173278
10.516 -3.461 -1.369 11.15522
10.511 -3.4230001 -1.367 11.138525
10.498 -3.382 -1.363 11.113222
10.521 -3.335 -1.364 11.120889
10.539 -3.3039999 -1.365 11.128798
10.536 -3.267 -1.363 11.114781
10.552 -3.2360001 -1.364 11.121012
10.517 -3.1889999 -1.357 11.073322
10.517 -3.1530001 -1.3559999 11.062886
10.67 -3.1440001 -1.377 11.208468
10.703 -3.118 -1.38 11.233011
10.724 -3.0869999 -1.382 11.244718
10.681 -3.0380001 -1.374 11.189329
10.658 -2.9949999 -1.369 11.15514
10.712 -2.9560001 -1.375 11.197121
10.753 -2.9319999 -1.38 11.230674
10.761 -2.8970001 -1.3789999 11.22913
10.823 -2.878 -1.387 11.284679
10.895 -2.8239999 -1.395 11.341166
10.849 -2.7939999 -1.388 11.288657
10.893 -2.7690001 -1.393 11.325424
10.911 -2.737 -1.3940001 11.335093
11.007 -2.688 -1.406 11.417365
11.046 -2.6600001 -1.41 11.448921
11.15 -2.6670001 -1.425 11.552749
11.191 -2.6400001 -1.4299999 11.58676
11.39 -2.6500001 -1.457 11.784628
11.382 -2.572 -1.454 11.759219
11.509 -2.5639999 -1.471 11.88255
11.309 -2.4809999 -1.441 11.667275
11.707 -2.55 -1.498 12.074781
12.451 -2.6659999 -1.518 12.823388
12.499 -2.5940001 -1.522 12.85575
12.538 -2.5610001 -1.527 12.887664
12.579 -2.549 -1.5319999 12.925776
12.595 -2.5109999 -1.533 12.934033
12.626 -2.4760001 -1.536 12.957846
12.68 -2.404 -1.541 12.99755
12.729 -2.372 -1.5470001 13.040209
12.736 -2.332 -1.5470001 13.039828
12.738 -2.3110001 -1.5470001 13.038043
12.861 -2.25 -1.562 13.149436
12.988 -2.23 -1.5779999 13.272194
12.993 -2.1889999 -1.5779999 13.270262
12.996 -2.1470001 -1.577 13.266218
12.985 -2.125 -1.575 13.251658
12.992 -2.0420001 -1.575 13.245469
12.983 -1.999 -1.572 13.22972
13.001 -1.96 -1.574 13.241794
13.005 -1.919 -1.574 13.239716
13.011 -1.878 -1.574 13.239731
13.032 -1.818 -1.575 13.252123
13.027 -1.776 -1.574 13.241389
13.023 -1.734 -1.573 13.231766
13.038 -1.694 -1.574 13.24147
13.032 -1.652 -1.572 13.230016
13.045 -1.591 -1.573 13.235469
13.042 -1.549 -1.572 13.227409
13.059 -1.5089999 -1.574 13.23979
13.054 -1.467 -1.572 13.229897
13.064 -1.427 -1.573 13.235512
13.073 -1.386 -1.574 13.240158
13.073 -1.324 -1.573 13.233693
13.087 -1.284 -1.574 13.243704
13.103 -1.244 -1.576 13.255939
13.095 -1.202 -1.574 13.243917
13.099 -1.16 -1.574 13.244126
13.098 -1.098 -1.574 13.237849
13.113 -1.058 -1.575 13.249557
13.103 -1.016 -1.573 13.236132
13.108 -0.97500002 -1.574 13.238117
13.129 -0.935 -1.576 13.256268
13.135 -0.87300003 -1.576 13.257984
13.14 -0.83200002 -1.576 13.260303
13.146 -0.79100001 -1.577 13.263858
13.135 -0.74900001 -1.575 13.250278
13.145 -0.708 -1.576 13.258057
13.15 -0.64600003 -1.576 13.259849
13.142 -0.60399997 -1.575 13.249816
13.152 -0.56300002 -1.576 13.258049
13.144 -0.52200001 -1.575 13.248315
13.145 -0.47999999 -1.575 13.247719
13.165 -0.419 -1.577 13.265735
13.156 -0.377 -1.576 13.255424
13.164 -0.336 -1.577 13.26238
13.159 -0.29499999 -1.576 13.256323
13.168 -0.212 -1.577 13.263788
13.151 -0.191 -1.575 13.246355
13.149 -0.15000001 -1.574 13.243723
13.155 -0.109 -1.575 13.249397
13.154 -0.067000002 -1.575 13.248126
13.136 0.015 -1.572 13.229735
13.152 0.057 -1.575 13.246093
13.148 0.077 -1.574 13.242104
13.138 0.119 -1.573 13.232367
13.14 0.20100001 -1.573 13.235345
13.134 0.242 -1.572 13.229955
13.135 0.28400001 -1.573 13.231902
13.144 0.30500001 -1.574 13.241421
13.143 0.34599999 -1.574 13.241436
13.151 0.42899999 -1.575 13.251923
13.144 0.47 -1.575 13.246367
13.138 0.51099998 -1.574 13.241814
13.129 0.53100002 -1.573 13.233554
13.128 0.61400002 -1.573 13.236153
13.124 0.65499997 -1.573 13.23415
13.151 0.69800001 -1.577 13.263594
13.127 0.73799998 -1.574 13.241611
13.125 0.77899998 -1.574 13.241977
13.111 0.83999997 -1.573 13.231713
13.116 0.88200003 -1.574 13.239519
13.117 0.92400002 -1.574 13.243373
13.12 0.96499997 -1.575 13.249387
13.1 1.005 -1.573 13.232323
13.118 1.069 -1.576 13.255507
13.101 1.109 -1.574 13.241735
13.113 1.151 -1.576 13.257425
13.108 1.192 -1.576 13.256104
13.102 1.233 -1.576 13.253923
13.132 1.278 -1.58 13.288307
12.527 1.252 -1.584 12.688667
13.137 1.383 -1.582 13.303991
13.132 1.424 -1.582 13.30338
13.124 1.465 -1.582 13.299937
13.123 1.506 -1.582 13.30353
13.128 1.5700001 -1.584 13.316094
13.133 1.612 -1.585 13.326157
13.126 1.653 -1.585 13.324283
13.136 1.696 -1.587 13.33977
13.125 1.737 -1.586 13.334099
13.127 1.779 -1.587 13.341722
13.132 1.8430001 -1.589 13.35556
13.144 1.887 -1.592 13.373855
13.136 1.928 -1.591 13.371722
13.148 1.972 -1.594 13.390277
13.132 2.0109999 -1.592 13.380135
13.13 2.0739999 -1.594 13.388024
13.129 2.1170001 -1.594 13.393773
13.126 2.1589999 -1.595 13.397656
13.121 2.2 -1.595 13.399427
13.123 2.2639999 -1.597 13.41228
13.121 2.306 -1.598 13.417596
13.114 2.3469999 -1.598 13.417862
13.12 2.391 -1.599 13.431607
13.111 2.4319999 -1.599 13.430181
13.111 2.517 -1.601 13.446071
13.114 2.539 -1.602 13.45325
13.108 2.5810001 -1.603 13.455513
13.12 2.6259999 -1.605 13.476138
13.101 2.7079999 -1.605 13.473882
13.081 2.747 -1.603 13.462102
13.08 2.7679999 -1.604 13.465549
13.083 2.812 -1.6059999 13.477814
13.063 2.8499999 -1.604 13.466153
13.06 2.9360001 -1.6059999 13.481949
13.058 2.9790001 -1.607 13.48956
13.047 3.0190001 -1.607 13.48781
13.044 3.04 -1.607 13.489625
13.036 3.082 -1.607 13.491422
13.015 3.1630001 -1.607 13.489894
13.018 3.207 -1.609 13.503408
13.016 3.25 -1.61 13.511878
13.011 3.27 -1.61 13.511889
12.99 3.352 -1.61 13.511776
12.987 3.395 -1.6109999 13.519746
12.988 3.4389999 -1.613 13.53206
12.977 3.48 -1.613 13.531988
12.972 3.5220001 -1.614 13.538177
12.949 3.5810001 -1.613 13.531517
12.938 3.622 -1.613 13.531906
12.94 3.6659999 -1.615 13.545899
12.934 3.7090001 -1.615 13.551873
12.934 3.753 -1.617 13.564219
12.914 3.813 -1.617 13.561896
12.9 3.8529999 -1.617 13.559877
12.888 3.8929999 -1.617 13.559892
12.877 3.9349999 -1.617 13.561564
12.859 3.973 -1.6160001 13.555444
12.858 4.0170002 -1.618 13.567696
12.83 4.0749998 -1.6160001 13.558244
12.826 4.118 -1.618 13.567687
12.802 4.1550002 -1.6160001 13.556057
12.798 4.198 -1.617 13.565644
12.777 4.2360001 -1.6160001 13.55754
12.774 4.3010001 -1.619 13.575523
12.753 4.3390002 -1.618 13.567751
12.738 4.3779998 -1.617 13.566069
12.729 4.4200001 -1.618 13.571358
12.723 4.4629998 -1.619 13.579921
12.711 4.5040002 -1.619 13.58222
12.738 4.5809999 -1.626 13.634005
12.725 4.6220002 -1.627 13.635822
12.735 4.671 -1.63 13.662188
12.705 4.7049999 -1.628 13.645675
12.549 4.7140002 -1.609 13.50141
12.536 4.7540002 -1.609 13.50336
12.529 4.7969999 -1.61 13.512186
12.493 4.8280001 -1.607 13.489517
12.493 4.8730001 -1.609 13.505926
12.437 4.9190001 -1.605 13.470395
12.428 4.961 -1.6059999 13.47761
12.429 5.006 -1.608 13.495397
12.426 5.0510001 -1.61 13.509633
12.447 5.105 -1.615 13.549799
12.409 5.1810002 -1.614 13.543672
12.449 5.2199998 -1.6210001 13.596089
12.434 5.2600002 -1.622 13.597898
12.417 5.2989998 -1.622 13.597507
12.135 5.2680001 -1.585 13.323749
11.479 5.0190001 -1.575 12.626892
11.349 5.0050001 -1.558 12.501087
11.258 5.0279999 -1.5470001 12.426446
11.228 5.0570002 -1.545 12.410812
11.219 5.0960002 -1.546 12.418748
11.291 5.171 -1.5599999 12.51637
11.696 5.4000001 -1.625 12.984492
12.308 5.7160001 -1.631 13.668199
12.194 5.757 -1.619 13.581526
11.647 5.533 -1.627 12.996685
11.64 5.5749998 -1.6289999 13.008608
11.633 5.6170001 -1.631 13.020658
11.576 5.6570001 -1.626 12.986505
10.092 4.974 -1.3940001 11.337213
9.9820004 4.9590001 -1.38 11.231047
9.8789997 4.948 -1.3660001 11.132982
9.8030005 4.948 -1.3559999 11.064369
9.7010002 4.9349999 -1.3430001 10.966644
9.5629997 4.9219999 -1.324 10.836514
9.4700003 4.9120002 -1.312 10.748488
9.3950005 4.9109998 -1.303 10.680906
0 0 0 0
9.2519999 4.9109998 -1.285 10.553134
9.0419998 4.855 -1.255 10.33943
8.9919996 4.8639998 -1.249 10.29925
8.8959999 4.849 -1.2359999 10.206827
8.9189997 4.8979998 -1.242 10.250928
8.7650003 4.8499999 -1.22 10.09139
8.7200003 4.8610001 -1.215 10.057034
8.5690002 4.8299999 -1.194 9.9086981
8.5129995 4.8340001 -1.188 9.8615446
8.4610004 4.8400002 -1.182 9.818923
8.427 4.8559999 -1.179 9.7971983
8.3830004 4.8649998 -1.174 9.763257
8.3520002 4.8829999 -1.171 9.7452984
8.2950001 4.902 -1.166 9.705472
8.283 4.9299998 -1.166 9.7094049
8.2539997 4.948 -1.164 9.6936121
8.2580004 4.9860001 -1.1670001 9.7168236
8.2270002 5.0029998 -1.165 9.699008
8.2089996 5.0440001 -1.166 9.7051105
8.2049999 5.0780001 -1.168 9.7196884
8.1969995 5.1079998 -1.169 9.7287731
8.184 5.1360002 -1.17 9.7326899
8.1789999 5.1859999 -1.173 9.7553349
8.1660004 5.2140002 -1.173 9.7593699
8.1709995 5.2540002 -1.177 9.7854528
8.1809998 5.2969999 -1.181 9.81742
8.1540003 5.3520002 -1.183 9.8250256
8.1639996 5.3769999 -1.186 9.8473148
8.177 5.4219999 -1.191 9.8833141
8.1499996 5.441 -1.189 9.8712053
8.1479998 5.4770002 -1.191 9.8896875
8.1590004 5.559 -1.199 9.9453192
8.1660004 5.6009998 -1.204 9.9751883
8.1490002 5.6079998 -1.202 9.9649715
8.1520004 5.6490002 -1.206 9.9910336
8.1400003 5.7160001 -1.21 10.019799
8.1300001 5.7470002 -1.211 10.029528
8.1120005 5.7719998 -1.211 10.029309
8.1020002 5.7849998 -1.211 10.028717
8.2819996 5.9520001 -1.2460001 10.274742
8.1169996 5.9109998 -1.223 10.1154
8.1110001 5.9460001 -1.225 10.13133
8.1239996 5.9949999 -1.2309999 10.17127
8.1210003 6.0320001 -1.234 10.191095
8.1350002 6.1020002 -1.2410001 10.244643
8.1599998 6.1609998 -1.249 10.300656
8.1680002 6.2069998 -1.2539999 10.335163
0 0 0 0
10.474 8.0389996 -1.582 13.297853
10.409 8.0939999 -1.579 13.27981
10.398 8.1379995 -1.582 13.298427
10.366 8.165 -1.58 13.289755
10.346 8.2030001 -1.582 13.297806
10.314 8.2299995 -1.58 13.289391
10.299 8.2969999 -1.584 13.31986
10.268 8.3260002 -1.584 13.314021
10.255 8.3690004 -1.586 13.331189
10.218 8.3929996 -1.584 13.317621
10.197 8.4289999 -1.585 13.324379
10.152 8.4729996 -1.584 13.317803
10.138 8.5150003 -1.586 13.334154
10.111 8.5469999 -1.586 13.334126
10.082 8.5769997 -1.586 13.33143
10.055 8.6090002 -1.586 13.331666
10.019 8.6330004 -1.584 13.319839
9.9870005 8.6870003 -1.586 13.33115
9.96 8.7189999 -1.586 13.331841
9.915 8.7340002 -1.5829999 13.307737
9.8699999 8.75 -1.58 13.284419
9.7959995 8.7399998 -1.571 13.221848
5.3260002 4.796 -0.89999998 7.2234268
5.2620001 4.7839999 -0.89200002 7.1673541
5.2309999 4.7859998 -0.889 7.1455917
5.1939998 4.783 -0.884 7.1159101
5.165 4.7859998 -0.88099998 7.0964203
5.1279998 4.7820001 -0.87599999 7.0662069
5.0609999 4.7639999 -0.86699998 7.0043635
5.033 4.7680001 -0.86400002 6.986516
5.0149999 4.7810001 -0.86400002 6.9824553
4.9619999 4.7610002 -0.85600001 6.9297404
4.9390001 4.7680001 -0.85399997 6.9178658
4.9239998 4.7839999 -0.85399997 6.9182186
4.8600001 4.7670002 -0.84500003 6.8598776
4.8449998 4.7820001 -0.84500003 6.8597064
4.8060002 4.7740002 -0.83999997 6.8260031
4.7690001 4.7670002 -0.83499998 6.7944736
4.7610002 4.789 -0.83700001 6.8045731
4.7059999 4.7789998 -0.82999998 6.7582674
4.6869998 4.789 -0.829 6.7520165
4.6430001 4.7740002 -0.82300001 6.7101307
4.6209998 4.7820001 -0.82099998 6.7003884
4.592 4.7820001 -0.81800002 6.6800532
4.5739999 4.7940001 -0.81699997 6.6761813
4.5219998 4.7839999 -0.81099999 6.6327114
4.5079999 4.7989998 -0.81099999 6.6340175
4.4790001 4.7989998 -0.80800003 6.6139779
4.4439998 4.7909999 -0.80299997 6.5838909
4.4169998 4.7919998 -0.801 6.5661826
4.3730001 4.79 -0.796 6.5345883
4.3509998 4.796 -0.79400003 6.5240517
4.3080001 4.7789998 -0.78799999 6.4821796
4.2940001 4.7940001 -0.78799999 6.4839664
4.257 4.783 -0.78299999 6.4507542
4.243 4.7969999 -0.78299999 6.4519262
4.1989999 4.7940001 -0.77899998 6.4203486
4.1669998 4.7870002 -0.77499998 6.3937378
4.145 4.7919998 -0.773 6.3829317
4.1139998 4.7870002 -0.76899999 6.3585949
4.0999999 4.8010001 -0.76999998 6.3602281
4.052 4.79 -0.764 6.3203244
4.0190001 4.7820001 -0.759 6.2925324
3.9949999 4.7839999 -0.75700003 6.278513
3.974 4.789 -0.75599998 6.2688704
3.9089999 4.7729998 -0.74699998 6.2144842
3.941 4.8260002 -0.75700003 6.2765284
3.9059999 4.8140001 -0.75199997 6.2447524
3.8699999 4.802 -0.74699998 6.2124162
3.8499999 4.8080001 -0.74599999 6.204505
3.7780001 4.7789998 -0.736 6.1362705
3.7780001 4.7940001 -0.73699999 6.1480803
3.75 4.789 -0.73400003 6.1266451
3.7320001 4.7979999 -0.73400003 6.122694
3.7049999 4.7940001 -0.73000002 6.1026521
3.671 4.8119998 -0.73000002 6.0962682
3.6429999 4.7909999 -0.72399998 6.0621204
3.6289999 4.8039999 -0.72500002 6.0641303
3.6129999 4.8140001 -0.72399998 6.0623875
3.566 4.8150001 -0.72000003 6.0348139
3.5409999 4.8130002 -0.71799999 6.0182371
3.5179999 4.8130002 -0.71600002 6.0044942
3.5150001 4.8249998 -0.71700001 6.0124817
3.4879999 4.8200002 -0.71399999 5.9923568
3.457 4.8400002 -0.71399999 5.9905128
3.424 4.8270001 -0.70899999 5.9604015
3.4070001 4.8340001 -0.708 5.956213
3.381 4.8460002 -0.70700002 5.9510274
3.369 4.8610001 -0.708 5.9565716
3.352 4.8699999 -0.708 5.9543314
0 0 0 0
3.5999999 5.2969999 -0.78299999 6.4522319
3.6159999 5.3559999 -0.792 6.5107188
3.612 5.4050002 -0.79799998 6.5496087
3.599 5.4219999 -0.79900002 6.5566216
3.586 5.4400001 -0.80000001 6.5645256
3.582 5.4710002 -0.80400002 6.5885491
0 0 0 0
0 0 0 0
0 0 0 0
0 0 0 0
0 0 0 0
0 0 0 0
0 0 0 0
0 0 0 0
0 0 0 0
0 0 0 0
0 0 0 0
0 0 0 0
0 0 0 0
0 0 0 0
0 0 0 0
0 0 0 0
0 0 0 0
0 0 0 0
0 0 0 0
0 0 0 0
0 0 0 0
0 0 0 0
0 0 0 0
0 0 0 0
0 0 0 0
0 0 0 0
0 0 0 0
0 0 0 0
0 0 0 0
0 0 0 0
0 0 0 0
0 0 0 0
0 0 0 0
0 0 0 0
0 0 0 0
0 0 0 0
2.5539999 5.2600002 -0.69800001 5.8887796
0 0 0 0
0 0 0 0
0 0 0 0
0 0 0 0
0 0 0 0
2.5079999 5.4889998 -0.727 6.0784631
2.497 5.5110002 -0.72899997 6.0940604
2.487 5.533 -0.73199999 6.1102438
2.4860001 5.6009998 -0.741 6.1725583
2.4690001 5.6110001 -0.741 6.1748171
0 0 0 0
2.4349999 5.6300001 -0.74199998 6.1787286
2.4719999 5.7639999 -0.76300001 6.3179622
2.4330001 5.723 -0.755 6.2643633
2.3929999 5.7030001 -0.75 6.2300205
2.3929999 5.7529998 -0.75700003 6.2766633
2.388 5.7909999 -0.76200002 6.3102193
2.362 5.7800002 -0.759 6.2899542
3.517 8.6759996 -1.127 9.4293365
3.4860001 8.6780005 -1.126 9.4195414
3.427 8.6890001 -1.124 9.4077854
3.3959999 8.6899996 -1.123 9.3973417
3.3610001 8.6820002 -1.12 9.3769846
3.335 8.6949997 -1.12 9.3797464
3.3169999 8.691 -1.119 9.3695316
3.2539999 8.6870003 -1.115 9.3432178
3.221 8.6829996 -1.113 9.3278131
3.191 8.6870003 -1.112 9.321105
3.164 8.6969995 -1.112 9.3212252
3.0869999 8.6129999 -1.097 9.2150288
3.052 8.5909996 -1.1339999 9.1872702
3.0910001 8.7969999 -1.122 9.3915052
2.984 8.5780001 -1.087 9.1470165
2.9890001 8.6809998 -1.102 9.2470684
2.96 8.6850004 -1.101 9.2413759
2.915 8.6859999 -1.099 9.2277632
2.882 8.6780005 -1.096 9.2094975
2.8540001 8.6850004 -1.096 9.2073755
2.823 8.6829996 -1.094 9.1956863
2.7969999 8.6969995 -1.095 9.2010889
2.7460001 8.6780005 -1.09 9.1671324
2.7190001 8.6870003 -1.09 9.1676083
2.687 8.6820002 -1.0880001 9.1531878
2.6570001 8.6789999 -1.087 9.1414585
2.6270001 8.6800003 -1.086 9.1336155
2.6010001 8.6920004 -1.086 9.1375856
2.549 8.6680002 -1.081 9.0994616
2.5280001 8.6969995 -1.084 9.121603
2.4920001 8.6759996 -1.08 9.0911732
2.4660001 8.6859999 -1.08 9.0936317
2.4360001 8.6859999 -1.079 9.0854244
2.3889999 8.6739998 -1.075 9.0609722
2.362 8.6820002 -1.075 9.0615559
2.3329999 8.6829996 -1.075 9.0549984
2.299 8.6680002 -1.071 9.0314274
2.2750001 8.6859999 -1.073 9.0428734
2.243 8.6759996 -1.0700001 9.0249052
2.2019999 8.6870003 -1.0700001 9.0253906
2.1730001 8.6859999 -1.069 9.0172768
2.1389999 8.6660004 -1.0650001 8.9893885
2.1170001 8.6920004 -1.068 9.0096169
2.0539999 8.6700001 -1.063 8.9731703
2.0409999 8.6789999 -1.064 8.9790211
2.01 8.6680002 -1.061 8.9610291
1.984 8.6780005 -1.062 8.9650316
1.956 8.6850004 -1.062 8.9656572
1.898 8.677 -1.059 8.9450665
1.882 8.6709995 -1.058 8.9357443
1.862 8.6940002 -1.101 8.9590673
1.7970001 8.6739998 -1.056 8.9209089
1.768 8.6719999 -1.0549999 8.9130478
1.748 8.6929998 -1.097 8.9346046
1.727 8.6809998 -1.0549999 8.9137707
1.7029999 8.6820002 -1.094 8.9148293
1.647 8.6829996 -1.0930001 8.9051523
1.619 8.6859999 -1.092 8.9028215
1.592 8.691 -1.092 8.9028311
1.577 8.6859999 -1.091 8.8951569
1.522 8.6920004 -1.091 8.8914356
1.495 8.6999998 -1.091 8.8946781
1.466 8.691 -1.089 8.8807964
1.438 8.6920004 -1.089 8.8771973
1.409 8.6870003 -1.087 8.867403
1.367 8.6870003 -1.086 8.8607035
1.339 8.6879997 -1.086 8.8574066
1.311 8.6879997 -1.085 8.8530941
1.285 8.6999998 -1.086 8.861186
1.255 8.684 -1.084 8.8409243
1.2130001 8.6800003 -1.082 8.830883
1.186 8.6920004 -1.0829999 8.839138
1.1569999 8.6820002 -1.081 8.8252106
1.1289999 8.6809998 -1.081 8.8205986
1.103 8.691 -1.081 8.8271542
1.075 8.6879997 -1.081 8.8207445
1.0319999 8.6800003 -1.079 8.807478
1.005 8.6789999 -1.0779999 8.8032465
0.97799999 8.6879997 -1.079 8.8092031
0.94999999 8.6850004 -1.0779999 8.8030567
0.92299998 8.6940002 -1.079 8.8091888
0.89600003 8.6990004 -1.079 8.8113375
0.85399997 8.6870003 -1.077 8.7950678
0.82700002 8.6940002 -1.077 8.7994032
0.79799998 8.684 -1.076 8.7867193
0.77100003 8.6829996 -1.075 8.7831974
0.74400002 8.6850004 -1.075 8.7828465
0.70200002 8.6789999 -1.074 8.7733297
0.67400002 8.6750002 -1.073 8.7670536
0.64700001 8.6789999 -1.073 8.7689781
0.61900002 8.6709995 -1.072 8.758914
0.565 8.677 -1.072 8.7612066
0.551 8.6800003 -1.072 8.7632866
0.523 8.6730003 -1.071 8.7545128
0.49700001 8.6809998 -1.072 8.7610474
0.46900001 8.6820002 -1.072 8.7604952
0.41499999 8.6809998 -1.071 8.7566557
0.40099999 8.6879997 -1.072 8.7630663
0.373 8.6709995 -1.0700001 8.7447271
0.34599999 8.684 -1.071 8.7566328
0.29100001 8.6759996 -1.0700001 8.7465734
0.264 8.6789999 -1.0700001 8.7486935
0.237 8.6820002 -1.071 8.7510195
0.223 8.6820002 -1.071 8.7506514
0.19599999 8.6850004 -1.071 8.7529812
0.141 8.6680002 -1.068 8.7346859
0.114 8.6829996 -1.0700001 8.7494211
0.086999997 8.677 -1.069 8.7430353
0.072999999 8.665 -1.068 8.730875
0.018999999 8.6709995 -1.068 8.7365446
-0.0080000004 8.665 -1.068 8.7305737
-0.035999998 8.6709995 -1.068 8.736599
-0.063000001 8.6689997 -1.068 8.734767
-0.090000004 8.6730003 -1.069 8.7390957
-0.131 8.6719999 -1.069 8.7386217
-0.15800001 8.6660004 -1.068 8.7329922
-0.185 8.6689997 -1.068 8.7364988
-0.213 8.6730003 -1.069 8.7412281
-0.23999999 8.6759996 -1.0700001 8.7450256
-0.26699999 8.6630001 -1.068 8.7326679
-0.308 8.6680002 -1.069 8.7390995
-0.33500001 8.6610003 -1.068 8.7330284
-0.36300001 8.6780005 -1.071 8.7513714
-0.38999999 8.6669998 -1.069 8.7413807
-0.41800001 8.6730003 -1.0700001 8.7487459
-0.44400001 8.6639996 -1.069 8.740983
-0.48500001 8.6639996 -1.069 8.7431612
-0.51300001 8.6700001 -1.071 8.7509489
-0.54000002 8.6660004 -1.0700001 8.7484894
-0.56699997 8.6569996 -1.069 8.7411604
-0.59500003 8.665 -1.071 8.7511883
-0.63499999 8.6619997 -1.071 8.751029
-0.66299999 8.6599998 -1.071 8.7511263
-0.69199997 8.6809998 -1.074 8.7745142
-0.708 8.5509996 -1.0549999 8.6448765
0 0 0 0
0 0 0 0
0 0 0 0
0 0 0 0
0 0 0 0
0 0 0 0
0 0 0 0
0 0 0 0
0 0 0 0
0 0 0 0
0 0 0 0
0 0 0 0
0 0 0 0
0 0 0 0
-1.1720001 8.6599998 -1.0779999 8.8051844
0 0 0 0
0 0 0 0
0 0 0 0
0 0 0 0
0 0 0 0
0 0 0 0
0 0 0 0
0 0 0 0
0 0 0 0
0 0 0 0
0 0 0 0
0 0 0 0
0 0 0 0
0 0 0 0
0 0 0 0
0 0 0 0
-1.226 6.2119999 -0.77200001 6.378715
-1.248 6.2210002 -0.77399999 6.3919811
-1.27 6.2329998 -0.77700001 6.4083476
-1.2869999 6.2129998 -0.77399999 6.3919334
-1.318 6.217 -0.77600002 6.4023738
-1.337 6.211 -0.77600002 6.4004893
-1.359 6.2160001 -0.77700001 6.4100909
-1.3789999 6.2140002 -0.77700001 6.4124231
-1.4220001 6.224 -0.77999997 6.4318471
-1.441 6.2160001 -0.77999997 6.4283385
-1.448 6.204 -0.778 6.4180684
-1.479 6.2480001 -0.78600001 6.4685965
-1.5190001 6.2399998 -0.78600001 6.4701433
-1.538 6.2329998 -0.78600001 6.4678845
-1.564 6.2550001 -0.79000002 6.4957848
-1.561 6.2010002 -0.78200001 6.4420996
-1.581 6.198 -0.78200001 6.4440894
-1.626 6.211 -0.78600001 6.468245
-1.651 6.2290001 -0.79000002 6.4923296
-1.6670001 6.2080002 -0.787 6.4759188
-1.6619999 6.1129999 -0.773 6.3818917
-1.664 6.0799999 -0.76800001 6.3502064
-1.73 6.171 -0.78399998 6.456686
-1.671 5.8850002 -0.74000001 6.1622291
0 0 0 0
0 0 0 0
0 0 0 0
0 0 0 0
0 0 0 0
0 0 0 0
0 0 0 0
0 0 0 0
0 0 0 0
0 0 0 0
0 0 0 0
0 0 0 0
0 0 0 0
0 0 0 0
0 0 0 0
0 0 0 0
0 0 0 0
0 0 0 0
0 0 0 0
0 0 0 0
0 0 0 0
0 0 0 0
0 0 0 0
0 0 0 0
0 0 0 0
0 0 0 0
0 0 0 0
0 0 0 0
0 0 0 0
0 0 0 0
0 0 0 0
0 0 0 0
0 0 0 0
0 0 0 0
0 0 0 0
0 0 0 0
0 0 0 0
0 0 0 0
0 0 0 0
0 0 0 0
0 0 0 0
0 0 0 0
0 0 0 0
0 0 0 0
0 0 0 0
0 0 0 0
0 0 0 0
0 0 0 0
0 0 0 0
0 0 0 0
0 0 0 0
0 0 0 0
0 0 0 0
0 0 0 0
0 0 0 0
0 0 0 0
0 0 0 0
0 0 0 0
0 0 0 0
0 0 0 0
0 0 0 0
0 0 0 0
0 0 0 0
0 0 0 0
0 0 0 0
0 0 0 0
0 0 0 0
0 0 0 0
-2.875 5.0549998 -0.69300002 5.8565259
-2.908 5.0749998 -0.69800001 5.8906102
0 0 0 0
0 0 0 0
0 0 0 0
-2.964 5.026 -0.69599998 5.8762565
-3.0009999 5.0339999 -0.69999999 5.9023013
-3.023 5.0349998 -0.70200002 5.9146056
0 0 0 0
-3.0550001 5.0159998 -0.70200002 5.9149036
-3.1029999 5.0599999 -0.71200001 5.9782228
-3.119 5.0320001 -0.70899999 5.9625387
-3.1289999 5.0139999 -0.708 5.9524865
-5.8309999 9.2659998 -1.352 11.031193
-5.8649998 9.2559996 -1.353 11.04094
-5.8860002 9.224 -1.351 11.02508
-5.9780002 9.2709999 -1.363 11.115111
-5.9980001 9.2390003 -1.3609999 11.098984
-6.0539999 9.2620001 -1.368 11.149304
-6.0809999 9.2390003 -1.368 11.144914
-6.1300001 9.25 -1.373 11.181437
-6.1469998 9.2119999 -1.37 11.159007
-6.1360002 9.1029997 -1.3559999 11.061367
-6.1430001 9.052 -1.35 11.022597
-6.1589999 9.0150003 -1.347 11.000814
-6.1900001 8.9989996 -1.348 11.005235
-6.2189999 8.9809999 -1.348 11.006881
-6.2410002 8.9219999 -1.3430001 10.97068
-6.2600002 8.8900003 -1.341 10.955273
-6.2719998 8.8470001 -1.337 10.9268
-6.2940001 8.8190002 -1.336 10.916689
-6.3260002 8.7469997 -1.33 10.876451
-6.3249998 8.717 -1.326 10.851267
-6.3429999 8.684 -1.324 10.835058
-6.3639998 8.6560001 -1.323 10.82484
-6.4060001 8.6549997 -1.326 10.849154
-6.4860001 8.6499996 -1.332 10.893342
-6.5240002 8.6429996 -1.335 10.910831
-6.559 8.6619997 -1.34 10.947434
-6.5910001 8.6470003 -1.341 10.954916
-6.6700001 8.6389999 -1.347 10.997073
-6.7069998 8.6300001 -1.349 11.012745
-6.744 8.6219997 -1.351 11.029307
-6.7779999 8.6379995 -1.3559999 11.06323
-6.8150001 8.6289997 -1.358 11.07917
-6.9070001 8.6339998 -1.367 11.140974
-6.948 8.6289997 -1.37 11.16294
-6.993 8.6289997 -1.374 11.191495
-7.0409999 8.6330004 -1.3789999 11.22524
-7.1040001 8.6269999 -1.3839999 11.260879
-7.1529999 8.6309996 -1.3890001 11.295525
-7.1939998 8.625 -1.392 11.317328
-7.2410002 8.6269999 -1.396 11.349275
-7.2880001 8.6280003 -1.401 11.380692
-7.362 8.6330004 -1.408 11.432857
-7.4050002 8.6280003 -1.411 11.457195
-7.4510002 8.6269999 -1.415 11.486721
-7.5 8.6289997 -1.42 11.520679
-7.5430002 8.6230001 -1.424 11.544728
-7.5869999 8.6190004 -1.427 11.570914
-7.6719999 8.6339998 -1.437 11.63918
-7.7080002 8.6199999 -1.439 11.652827
-7.757 8.6190004 -1.443 11.685053
-7.8169999 8.6309996 -1.45 11.734655
-7.9889998 8.7670002 -1.4809999 11.953149
-8.0780001 8.7819996 -1.4910001 12.025002
-8.1330004 8.7849998 -1.497 12.064947
-8.1820002 8.783 -1.501 12.097075
-8.2320004 8.7819996 -1.506 12.130844
-8.3400002 8.8409996 -1.522 12.248892
-8.3839998 8.8319998 -1.526 12.272911
-8.4659996 8.835 -1.534 12.332215
-8.4969997 8.8120003 -1.535 12.337203
-8.5249996 8.7849998 -1.535 12.337263
-8.5380001 8.7440004 -1.5319999 12.316737
-8.6059999 8.7030001 -1.534 12.335258
-6.3369999 6.3790002 -1.075 9.0556526
-8.6169996 8.6330004 -1.528 12.292931
-6.3270001 6.2880001 -1.064 8.983427
-6.4289999 6.355 -1.122 9.1091681
-6.46 6.342 -1.0829999 9.1173162
-6.5229998 6.3629999 -1.092 9.1776772
-6.4489999 6.2309999 -1.071 9.0311689
-8.967 8.6239996 -1.563 12.538877
-9.0190001 8.566 -1.563 12.536414
-6.2909999 5.9330001 -1.0650001 8.7127142
-6.5929999 6.2119999 -1.084 9.1231384
-6.566 6.1279998 -1.073 9.0452232
-6.6230001 6.1430001 -1.08 9.0976362
-6.5339999 6.0219998 -1.0599999 8.9488115
-6.507 5.927 -1.0880001 8.8687162
-6.4029999 5.7969999 -1.064 8.7026272
-6.4390001 5.8109999 -1.069 8.7390614
-6.6789999 5.9840002 -1.071 9.0312977
-6.6209998 5.8940001 -1.057 8.9271564
-7.0159998 6.1690001 -1.124 9.4097929
-6.8239999 5.961 -1.084 9.1255436
-9.9250002 8.6470003 -1.576 13.257452
-6.6599998 5.7670002 -1.089 8.8769255
-6.9450002 5.9720001 -1.098 9.2251511
-6.7789998 5.7550001 -1.061 8.9554777
-6.5650001 5.5430002 -1.057 8.6568661
-6.6919999 5.6139998 -1.0779999 8.8012466
-6.823 5.6810002 -1.059 8.9413967
-7.086 5.8449998 -1.102 9.2514763
-10.534 8.6370001 -1.638 13.720276
-10.602 8.6370001 -1.645 13.773388
-10.649 8.6199999 -1.649 13.799449
-10.698 8.632 -1.655 13.845492
-10.825 8.6219997 -1.6670001 13.939095
-7.052 5.579 -1.075 9.0560236
-6.8379998 5.3800001 -1.073 8.7666397
-7.6750002 5.9970002 -1.181 9.8114424
-7.2470002 5.6259999 -1.142 9.2452717
-7.0770001 5.4549999 -1.067 8.9988585
-7.6209998 5.8200002 -1.159 9.6589508
-7.6929998 5.8369999 -1.169 9.7272491
-7.6939998 5.8000002 -1.166 9.7055235
-7.6630001 5.7379999 -1.1569999 9.6428652
-7.5949998 5.6500001 -1.142 9.534709
-7.7859998 5.7550001 -1.1720001 9.7527122
-7.7030001 5.6370001 -1.153 9.6146441
-7.8600001 5.7150002 -1.177 9.7890835
-7.8720002 5.6859999 -1.176 9.7817154
-12.052 8.6160002 -1.799 14.923892
-7.9959998 5.6989999 -1.192 9.8911819
-7.96 5.6170001 -1.181 9.8136158
-12.281 8.6049995 -1.823 15.106036
-7.7659998 5.4070001 -1.141 9.5314369
-7.9000001 5.4640002 -1.1619999 9.6755123
-12.521 8.599 -1.849 15.301538
-12.672 8.6140003 -1.867 15.435877
-12.75 8.6079998 -1.875 15.497605
-12.839 8.6099997 -1.886 15.573343
-12.913 8.6000004 -1.893 15.629748
-12.994 8.5959997 -1.902 15.695632
-13.142 8.6049995 -1.919 15.82532
-13.228 8.6009998 -1.929 15.895856
-13.32 8.6009998 -1.939 15.973707
-13.398 8.5930004 -1.947 16.035486
-13.472 8.5799999 -1.955 16.091402
-13.558 8.5450001 -1.962 16.145767
-13.598 8.5109997 -1.964 16.161684
-13.643 8.4799995 -1.967 16.183662
-13.658 8.4289999 -1.965 16.169424
-13.712 8.3439999 -1.966 16.17116
-13.73 8.3260002 -1.966 16.177155
-13.753 8.2810001 -1.966 16.173594
-13.794 8.2469997 -1.9680001 16.19137
-13.801 8.1920004 -1.965 16.169035
-13.882 8.1219997 -1.97 16.203632
-13.904 8.0769997 -1.969 16.199879
-13.911 8.052 -1.9680001 16.193321
-13.947 8.0139999 -1.97 16.205673
-13.987 7.9200001 -1.9680001 16.193689
-14.027 7.8850002 -1.971 16.211563
-11.19 6.25 -1.529 12.907999
-11.181 6.2220001 -1.526 12.886299
-11.155 6.1160002 -1.517 12.811743
-11.143 6.0640001 -1.512 12.775942
-11.155 6.026 -1.511 12.768313
-11.082 5.948 -1.582 12.676441
-11.069 5.8969998 -1.577 12.640581
-11.077 5.8559999 -1.576 12.628398
-11.056 5.7779999 -1.568 12.572948
-11.06 5.7360001 -1.5650001 12.556852
-11.048 5.6859999 -1.561 12.523004
-11.053 5.645 -1.559 12.50861
-11.052 5.5999999 -1.556 12.487107
-11.053 5.5570002 -1.553 12.468395
-11.047 5.4889998 -1.548 12.432281
-11.047 5.4460001 -1.545 12.412983
-11.05 5.4039998 -1.543 12.397038
-11.058 5.3649998 -1.5420001 12.387104
-11.079 5.3109999 -1.541 12.382474
-11.074 5.2659998 -1.538 12.358385
-11.084 5.2280002 -1.5369999 12.351089
-11.07 5.1789999 -1.5319999 12.317222
-11.084 5.1430001 -1.5319999 12.314728
-11.103 5.0879998 -1.531 12.308871
-11.094 5.0419998 -1.527 12.2813
-11.109 5.007 -1.527 12.28054
-11.134 4.9759998 -1.528 12.2907
-11.219 4.9299998 -1.5369999 12.350434
-11.273 4.9109998 -1.5420001 12.392587
-11.301 4.902 -1.546 12.415004
-11.367 4.8889999 -1.553 12.470878
-11.453 4.8839998 -1.564 12.548735
-11.522 4.8280001 -1.5700001 12.590908
-11.579 4.809 -1.577 12.636719
-11.662 4.8010001 -1.587 12.711036
-11.754 4.8099999 -1.5140001 12.790027
-11.848 4.8049998 -1.525 12.875897
-11.937 4.7969999 -1.536 12.956175
-12.114 4.7800002 -1.557 13.115703
-12.214 4.7969999 -1.571 13.215939
-12.397 4.8239999 -1.595 13.397784
-12.307 4.744 -1.58 13.283982
-12.659 4.7880001 -1.626 13.631548
-12.769 4.7839999 -1.64 13.734032
-12.884 4.7810001 -1.654 13.841644
-13 4.8000002 -1.67 13.958113
-13.082 4.7839999 -1.679 14.030126
-13.309 4.7719998 -1.7079999 14.241445
-13.453 4.776 -1.726 14.379585
-13.616 4.7849998 -1.747 14.537664
-13.734 4.802 -1.763 14.65572
-13.893 4.809 -1.784 14.809611
-15.281 5.1789999 -1.977 16.255447
-14.386 4.8270001 -1.847 15.286213
-14.387 4.777 -1.845 15.271199
-14.391 4.7280002 -1.844 15.259594
-14.417 4.7119999 -1.846 15.279415
-14.738 4.7129998 -1.888 15.587995
-15.529 4.9120002 -1.997 16.409315
-15.55 4.8649998 -1.998 16.415319
-15.511 4.7989998 -1.99 16.357924
-15.634 4.756 -2.0050001 16.463945
-15.637 4.7030001 -2.003 16.451323
-15.658 4.6560001 -2.0039999 16.458048
-15.655 4.6020002 -2.0009999 16.439629
-15.719 4.5669999 -2.0079999 16.491711
-15.806 4.5380001 -2.0179999 16.567904
-15.888 4.4809999 -2.027 16.631796
-15.909 4.4330001 -2.0280001 16.639128
-15.919 4.382 -2.0280001 16.635181
-15.908 4.3249998 -2.0239999 16.609234
-15.924 4.276 -2.0239999 16.611879
-15.944 4.2010002 -2.0239999 16.611927
-15.955 4.1500001 -2.0239999 16.609669
-15.991 4.1059999 -2.027 16.633703
-15.994 4.053 -2.026 16.623463
-15.999 4.0009999 -2.0250001 16.615553
-16.025 3.954 -2.027 16.629597
-16.035999 3.8759999 -2.026 16.621712
-16.070999 3.832 -2.029 16.645662
-16.070999 3.7780001 -2.027 16.63307
-16.091 3.73 -2.0280001 16.641693
-16.093 3.677 -2.027 16.631708
-16.125999 3.6040001 -2.029 16.647928
-16.152 3.5569999 -2.0309999 16.663263
-16.167 3.507 -2.0320001 16.667332
-16.17 3.4549999 -2.0309999 16.659258
-16.201 3.408 -2.033 16.679928
-16.194 3.3529999 -2.0309999 16.66173
-16.216999 3.279 -2.0320001 16.669491
-16.237 3.23 -2.033 16.679512
-16.233999 3.1760001 -2.0320001 16.666096
-16.264999 3.1289999 -2.0350001 16.687782
-16.252001 3.0469999 -2.0309999 16.659433
-16.278999 2.9990001 -2.033 16.677317
-16.275 2.9460001 -2.0309999 16.663717
-16.292 2.8959999 -2.0320001 16.671686
-16.299 2.8440001 -2.0320001 16.669577
-16.313999 2.7420001 -2.0320001 16.667158
-16.332001 2.7179999 -2.0339999 16.681095
-16.323 2.664 -2.0309999 16.663198
-16.337 2.6140001 -2.0320001 16.669121
-16.356001 2.5109999 -2.0320001 16.671921
-16.363001 2.46 -2.0320001 16.671186
-16.371 2.4349999 -2.033 16.675489
-16.372999 2.3829999 -2.0320001 16.669817
-16.372 2.3299999 -2.0309999 16.661221
-16.391001 2.2279999 -2.0320001 16.666071
-16.398001 2.1760001 -2.0320001 16.666086
-16.402 2.1240001 -2.0309999 16.663191
-16.402 2.098 -2.0309999 16.659897
-16.424 1.9960001 -2.0320001 16.669157
-16.410999 1.942 -2.029 16.649597
-16.419001 1.891 -2.03 16.651737
-16.427 1.84 -2.03 16.653913
-16.434 1.788 -2.03 16.655155
-16.450001 1.711 -2.0309999 16.662983
-16.438 1.658 -2.029 16.645529
-16.447001 1.607 -2.029 16.649418
-16.462 1.556 -2.0309999 16.659637
-16.448999 1.503 -2.0280001 16.641556
-16.466999 1.452 -2.03 16.655067
-16.452 1.373 -2.027 16.633165
-16.466 1.322 -2.029 16.643127
-16.473 1.27 -2.029 16.646006
-16.483999 1.219 -2.03 16.6532
-16.52 1.169 -2.0339999 16.685745
-16.493 1.09 -2.03 16.65317
-16.495001 1.038 -2.03 16.651829
-16.507999 0.986 -2.0309999 16.661669
-16.513 0.935 -2.0309999 16.663685
-16.496 0.88200003 -2.029 16.643702
-16.5 0.80400002 -2.029 16.643715
-16.507999 0.75199997 -2.029 16.649216
-16.514999 0.70099998 -2.03 16.654055
-16.513 0.64899999 -2.029 16.649843
-16.528 0.597 -2.0309999 16.663017
-16.52 0.54500002 -2.03 16.653177
-16.528999 0.46700001 -2.0309999 16.659859
-16.546 0.41600001 -2.033 16.675619
-16.521 0.36300001 -2.029 16.649086
-16.540001 0.31200001 -2.0320001 16.667273
-16.521999 0.208 -2.029 16.647421
-16.513 0.18099999 -2.0280001 16.638052
-16.517 0.13 -2.0280001 16.641544
-16.523001 0.078000002 -2.029 16.647297
-18.584 0.024 -2.082 18.700277
-18.587999 -0.034000002 -2.0829999 18.704378
-18.573 -0.15099999 -2.0810001 18.689829
-18.570999 -0.20900001 -2.0810001 18.688398
-18.568001 -0.23800001 -2.0810001 18.685766
-18.566 -0.29699999 -2.0799999 18.684511
-18.561001 -0.41299999 -2.0799999 18.681747
-18.559999 -0.472 -2.0799999 18.68215
-18.546 -0.52899998 -2.079 18.669659
-18.556 -0.55900002 -2.0799999 18.680578
-18.544001 -0.61699998 -2.079 18.670374
-18.535999 -0.73299998 -2.0780001 18.666512
-18.551001 -0.792 -2.0799999 18.684038
-18.535 -0.85000002 -2.079 18.670591
-18.530001 -0.90799999 -2.0780001 18.668247
-18.518999 -0.995 -2.0780001 18.661764
-18.534 -1.054 -2.0799999 18.680109
-18.521 -1.112 -2.079 18.670464
-18.523001 -1.17 -2.079 18.675993
-18.497 -1.227 -2.0769999 18.653645
-18.523001 -1.316 -2.0810001 18.68593
-18.533001 -1.376 -2.082 18.700274
-18.521999 -1.433 -2.082 18.693653
-18.5 -1.49 -2.079 18.675983
-18.487 -1.548 -2.0780001 18.667715
-18.462999 -1.604 -2.076 18.648457
-18.445 -1.6900001 -2.075 18.638126
-18.427999 -1.747 -2.073 18.626339
-18.416 -1.804 -2.073 18.619904
-18.400999 -1.8609999 -2.0710001 18.610456
-18.414 -1.921 -2.0739999 18.629738
-18.391001 -1.977 -2.072 18.612648
-18.363001 -2.0610001 -2.069 18.593769
-18.363001 -2.1199999 -2.0699999 18.600513
-18.35 -2.177 -2.069 18.594154
-18.371 -2.2379999 -2.073 18.622557
-18.348 -2.293 -2.0710001 18.606342
-18.313 -2.3770001 -2.0680001 18.582052
-18.089001 -2.405 -2.0409999 18.361961
-17.999001 -2.451 -2.0309999 18.278305
-17.945999 -2.5009999 -2.0250001 18.232239
-17.118 -2.4519999 -2.0120001 17.409376
-17.049 -2.497 -2.0050001 17.347145
-16.965 -2.54 -1.995 17.269709
-16.862 -2.6059999 -1.983 17.177034
-16.813 -2.652 -1.978 17.135418
-16.771 -2.7 -1.973 17.101147
-16.737 -2.7479999 -1.97 17.075115
-16.705 -2.7969999 -1.967 17.051373
-16.631001 -2.865 -1.959 16.989292
-16.580999 -2.9100001 -1.954 16.947441
-16.542 -2.957 -1.95 16.916977
-16.507999 -3.0050001 -1.947 16.891857
-16.414 -3.0940001 -1.937 16.814999
-16.339001 -3.1070001 -1.928 16.743166
-16.268999 -3.1470001 -1.92 16.681437
-16.232 -3.1930001 -1.916 16.653652
-14.747 -2.951 -1.724 15.137853
-14.417 -2.98 -1.684 14.817764
0 0 0 0
-14.422 -3.052 -1.686 14.837499
-14.42 -3.099 -1.687 14.845409
-14.393 -3.1400001 -1.6849999 14.827584
-14.414 -3.24 -1.6900001 14.870006
-14.382 -3.28 -1.687 14.847433
-14.42 -3.312 -1.693 14.892011
-14.405 -3.3570001 -1.692 14.887456
-14.507 -3.477 -1.709 15.015434
-14.354 -3.4879999 -1.6900001 14.868072
-15.632 -3.848 -1.86 16.205744
-15.591 -3.8900001 -1.8559999 16.175787
-15.507 -3.947 -1.847 16.107677
-15.454 -3.9849999 -1.842 16.06547
-15.418 -4.0279999 -1.839 16.041243
-15.367 -4.066 -1.834 16.001268
-15.324 -4.1059999 -1.83 15.969757
-15.249 -4.1630001 -1.822 15.911701
-15.199 -4.2010002 -1.818 15.873347
-15.159 -4.2420001 -1.814 15.845518
-15.119 -4.2820001 -1.8099999 15.817578
-15.071 -4.3189998 -1.806 15.781332
-15.025 -4.3569999 -1.802 15.747421
-14.94 -4.4089999 -1.793 15.679851
-14.903 -4.4489999 -1.79 15.655578
-14.853 -4.4850001 -1.785 15.617716
-14.816 -4.5250001 -1.7819999 15.593749
-14.779 -4.5640001 -1.779 15.569643
-14.695 -4.6149998 -1.771 15.504118
-14.657 -4.6529999 -1.768 15.479143
-14.628 -4.6950002 -1.766 15.464158
0 0 0 0
-14.564 -4.7750001 -1.761 15.427632
-14.511 -4.809 -1.756 15.38763
-14.421 -4.8540001 -1.747 15.315957
-14.388 -4.8940001 -1.744 15.297297
-14.343 -4.9289999 -1.74 15.265789
-14.293 -4.9619999 -1.7359999 15.229084
-14.257 -5 -1.733 15.207411
-10.517 -3.74 -1.306 11.238351
-10.427 -3.7449999 -1.295 11.154568
-10.273 -3.7260001 -1.275 11.001965
-10.217 -3.7420001 -1.268 10.954336
-10.102 -3.7720001 -1.255 10.856031
-10.119 -3.796 -1.258 10.880549
-10.096 -3.823 -1.257 10.868513
-10.013 -3.8280001 -1.247 10.792069
-10.127 -3.9449999 -1.267 10.941867
-10.06 -3.9549999 -1.2589999 10.882587
-10.177 -4.02 -1.277 11.016463
-13.691 -5.4640002 -1.686 14.837162
-10.199 -4.1030002 -1.284 11.068102
-10.111 -4.1409998 -1.274 11.000149
-10.195 -4.2140002 -1.289 11.106635
-10.253 -4.2750001 -1.299 11.184232
-10.069 -4.217 -1.273 10.990376
-10.189 -4.3049998 -1.293 11.136454
-10.07 -4.3299999 -1.279 11.035834
-9.8620005 -4.276 -1.251 10.821655
-10.081 -4.4099998 -1.285 11.078172
-9.5360003 -4.2059999 -1.207 10.492025
-9.6110001 -4.2930002 -1.22 10.596678
-9.7139997 -4.3759999 -1.238 10.725848
-13.177 -5.994 -1.652 14.570191
-13.129 -6.0219998 -1.648 14.537916
-6.007 -2.77 -0.76800001 6.6593375
-5.928 -2.767 -0.75700003 6.5856295
-5.928 -2.79 -0.759 6.5955563
-5.8860002 -2.7920001 -0.75300002 6.5579929
0 0 0 0
-5.8699999 -2.8299999 -0.75400001 6.5600543
-5.8369999 -2.848 -0.75099999 6.5380173
-5.7839999 -2.8440001 -0.74299997 6.4880691
0 0 0 0
-5.7529998 -2.8740001 -0.741 6.4734817
-5.7160001 -2.878 -0.73699999 6.4419489
-5.6929998 -2.8889999 -0.73400003 6.4261441
-5.677 -2.915 -0.73400003 6.4237304
-5.651 -2.9230001 -0.73100001 6.4040685
-5.645 -2.9430001 -0.73199999 6.4080496
-5.6269999 -2.9560001 -0.73000002 6.3979659
-5.598 -2.9849999 -0.72899997 6.3858647
-5.5599999 -2.9760001 -0.72299999 6.3476691
-5.5380001 -2.987 -0.72100002 6.3333602
-5.5310001 -3.006 -0.72100002 6.3362322
-5.5120001 -3.04 -0.72100002 6.3358965
0 0 0 0
-5.48 -3.0680001 -0.71899998 6.3213911
-5.4650002 -3.0710001 -0.71799999 6.3097382
-5.4380002 -3.0780001 -0.71499997 6.2894478
-5.4159999 -3.1099999 -0.71399999 6.2860918
-5.402 -3.125 -0.71399999 6.2814827
-5.3909998 -3.141 -0.713 6.2798991
-5.3759999 -3.1440001 -0.71100003 6.2683034
0 0 0 0
0 0 0 0
-5.29 -3.1830001 -0.704 6.2137914
-5.2940001 -3.2079999 -0.70599997 6.2302599
-5.2399998 -3.198 -0.69800001 6.1783495
0 0 0 0
-5.2140002 -3.2390001 -0.69800001 6.177712
-5.1939998 -3.2490001 -0.69700003 6.1659913
0 0 0 0
-5.072 -3.227 -0.68000001 6.0498853
-5.1300001 -3.2869999 -0.69199997 6.1318946
0 0 0 0
0 0 0 0
0 0 0 0
0 0 0 0
-5.099 -3.3929999 -0.69599998 6.1641436
-5.0700002 -3.3970001 -0.69300002 6.1420488
0 0 0 0
-5.0630002 -3.4389999 -0.69599998 6.1599598
0 0 0 0
-5.0609999 -3.484 -0.699 6.1838965
-5.053 -3.5139999 -0.70099998 6.1945467
-5.0320001 -3.523 -0.699 6.1823258
-5.0219998 -3.54 -0.699 6.1839051
-5.0219998 -3.563 -0.70099998 6.1973262
-4.987 -3.562 -0.69700003 6.1679673
-5.0110002 -3.6029999 -0.70300001 6.2117581
-5.0289998 -3.652 -0.70999998 6.2555609
-4.9990001 -3.654 -0.70599997 6.2321868
-4.9650002 -3.6530001 -0.70200002 6.2039051
-4.9829998 -3.691 -0.708 6.2413969
-4.9749999 -3.7090001 -0.708 6.2456841
-5 -3.7650001 -0.71600002 6.2998319
-5.0040002 -3.793 -0.71899998 6.3201127
-4.948 -3.7750001 -0.71100003 6.264092
-4.9910002 -3.8329999 -0.72100002 6.334178
-4.961 -3.859 -0.72000003 6.3262787
-4.9679999 -3.878 -0.722 6.3435941
-4.9520001 -3.8900001 -0.722 6.3384295
-4.9530001 -3.9159999 -0.72399998 6.3554263
-4.9439998 -3.934 -0.72500002 6.3596473
-4.948 -3.9890001 -0.73000002 6.3974781
-4.9699998 -4.0190001 -0.73500001 6.4337769
-4.9619999 -4.039 -0.736 6.4402375
-4.9439998 -4.0500002 -0.73500001 6.4331841
-4.9499998 -4.0809999 -0.73900002 6.4577999
-4.9200001 -4.1079998 -0.73799998 6.4518762
-4.941 -4.1529999 -0.745 6.4973774
-4.9359999 -4.1620002 -0.745 6.4993358
-4.934 -4.1869998 -0.74699998 6.5140872
-4.9369998 -4.244 -0.75300002 6.5538163
-4.9310002 -4.2659998 -0.75400001 6.5636907
-4.9000001 -4.2649999 -0.75099999 6.5394363
-4.9499998 -4.323 -0.76200002 6.6160011
-4.9260001 -4.329 -0.75999999 6.6017661
-4.915 -4.3740001 -0.76300001 6.623539
-4.9169998 -4.4039998 -0.76599997 6.6452131
-4.921 -4.4359999 -0.76999998 6.6698751
-4.9289999 -4.4710002 -0.77399999 6.6995492
-4.8930001 -4.4809999 -0.77100003 6.6794653
-4.902 -4.5180001 -0.77600002 6.7114906
-4.9029999 -4.5469999 -0.77899998 6.7321215
-4.8930001 -4.566 -0.77899998 6.7377033
-3.849 -3.6199999 -0.61199999 5.3191867
-3.8139999 -3.6110001 -0.60699999 5.287189
-3.7739999 -3.595 -0.60100001 5.2467418
-3.7579999 -3.592 -0.59899998 5.2329559
-3.701 -3.5829999 -0.59100002 5.1850333
-3.6630001 -3.5680001 -0.58600003 5.1469979
-3.648 -3.575 -0.58499998 5.1410847
-3.615 -3.566 -0.57999998 5.1108689
-3.5869999 -3.5610001 -0.57700002 5.0872607
-3.552 -3.5599999 -0.57300001 5.0614853
0 0 0 0
