# .PCD v0.7 - Point Cloud Data file format
VERSION 0.7
FIELDS x y z intensity
SIZE 4 4 4 4
TYPE F F F F
COUNT 1 1 1 1
WIDTH 1316
HEIGHT 1
VIEWPOINT 0 0 0 1 0 0 0
POINTS 1316
DATA ascii
-2.691 9.7360001 -0.54299998 10.115632
-2.724 9.7360001 -0.54299998 10.124461
-2.7379999 9.7279997 -0.54299998 10.120547
-2.773 9.7320004 -0.54400003 10.133967
-2.839 9.7340002 -0.546 10.15425
-2.872 9.7309999 -0.546 10.160652
-2.908 9.7390003 -0.54699999 10.178596
-2.941 9.7390003 -0.54799998 10.188126
-2.993 9.7440004 -0.55000001 10.208138
-3.0250001 9.7399998 -0.55000001 10.213752
-3.0550001 9.7270002 -0.55000001 10.210292
-3.0899999 9.7329998 -0.551 10.226583
-3.122 9.7290001 -0.551 10.232494
-3.1570001 9.7299995 -0.55199999 10.24423
-3.207 9.7299995 -0.55299997 10.259803
-3.244 9.7390003 -0.55500001 10.280063
-3.276 9.7329998 -0.55500001 10.284527
-3.3099999 9.7320004 -0.55599999 10.294517
-3.345 9.7340002 -0.55699998 10.307766
-3.4000001 9.743 -0.55900002 10.334337
-3.431 9.7340002 -0.55900002 10.336102
-3.4630001 9.7290001 -0.55900002 10.342065
-3.4949999 9.7200003 -0.56 10.34442
-3.5339999 9.7329998 -0.56099999 10.369916
-3.5669999 9.7279997 -0.56199998 10.376575
-3.6199999 9.7290001 -0.56300002 10.395904
-3.6559999 9.7349997 -0.565 10.41421
-3.688 9.7250004 -0.565 10.416151
-3.7219999 9.7229996 -0.56599998 10.426426
-3.757 9.724 -0.56699997 10.439958
-3.7909999 9.7200003 -0.56699997 10.448521
-3.845 9.7220001 -0.56900001 10.4702
-3.8770001 9.7139997 -0.56900001 10.474573
-3.9159999 9.7220001 -0.57099998 10.496589
-3.951 9.7220001 -0.57200003 10.509751
-4.0089998 9.7329998 -0.574 10.541956
-4.0409999 9.7220001 -0.574 10.544024
-4.0749998 9.7189999 -0.57499999 10.554393
-4.112 9.7209997 -0.57599998 10.570627
-4.1490002 9.7220001 -0.57700002 10.586048
-4.2160001 9.7110004 -0.57800001 10.602466
-4.2290001 9.698 -0.57800001 10.59574
-4.263 9.6920004 -0.579 10.603928
-4.2989998 9.6920004 -0.57999998 10.618506
-4.3709998 9.6899996 -0.58200002 10.646148
-4.4070001 9.6890001 -0.583 10.660125
-4.4460001 9.6929998 -0.58399999 10.679992
-4.4650002 9.6949997 -0.58499998 10.689783
-4.4980001 9.6859999 -0.58499998 10.695458
-4.6220002 9.79 -0.59600002 10.84261
-4.6100001 9.6870003 -0.58899999 10.744161
-4.6399999 9.6700001 -0.58899999 10.74176
-4.7810001 9.9230003 -0.61000001 11.031591
0 0 0 0
-4.7779999 9.6829996 -0.59399998 10.814
-4.8169999 9.6859999 -0.59600002 10.834081
-4.855 9.6850004 -0.597 10.850192
-4.9169998 9.7320004 -0.602 10.920217
-4.9029999 9.5930004 -0.59200001 10.789602
-4.9289999 9.5690002 -0.59200001 10.780133
-3.6670001 7.0500002 -0.43599999 7.958611
-3.675 7.0100002 -0.43399999 7.9267955
0 0 0 0
-5.0780001 9.5249996 -0.59399998 10.81039
-3.6659999 6.809 -0.419 7.7445202
-3.7160001 6.8509998 -0.42399999 7.8054233
-3.7720001 6.902 -0.43000001 7.877213
-3.658 6.6420002 -0.40700001 7.5936012
-3.4330001 6.2049999 -0.40900001 7.1031537
-3.447 6.184 -0.40799999 7.0915537
-3.7650001 6.6869998 -0.414 7.6852183
-3.6340001 6.3990002 -0.43200001 7.3715525
-3.6370001 6.3579998 -0.42899999 7.3372998
-3.1570001 5.487 -0.34299999 6.339674
-3.1300001 5.362 -0.333 6.2176228
-3.158 5.3899999 -0.336 6.2560339
-3.4960001 5.9190001 -0.38999999 6.885396
-3.5209999 5.9190001 -0.391 6.8981795
-3.5450001 5.9180002 -0.39199999 6.9096608
-3.5669999 5.9120002 -0.39199999 6.915844
-3.8099999 6.244 -0.428 7.3271289
-3.902 6.3330002 -0.39500001 7.4490619
-4.0289998 6.4959998 -0.412 7.6551027
-4.039 6.4660001 -0.41 7.63484
-4.1300001 6.5669999 -0.421 7.769146
0 0 0 0
-4.013 6.2909999 -0.39700001 7.4725132
-4.0370002 6.2859998 -0.398 7.4812813
-4.0640001 6.2610002 -0.398 7.4749331
-4.0900002 6.2589998 -0.39899999 7.4874821
0 0 0 0
0 0 0 0
0 0 0 0
0 0 0 0
-4.4099998 6.5029998 -0.42899999 7.868999
-6.322 9.2139997 -0.62199998 11.19162
-6.1630001 8.9219999 -0.597 10.860067
-6.4829998 9.3529997 -0.63700002 11.397967
-6.8559999 9.8219995 -0.68099999 11.997507
0 0 0 0
0 0 0 0
-6.3470001 8.8579998 -0.60100001 10.913742
-6.3930001 8.8920002 -0.60500002 10.968325
-6.401 8.7869997 -0.59899998 10.887744
-6.4699998 8.823 -0.60500002 10.957748
-5.2220001 7.066 -0.50400001 8.800662
-5.165 6.9419999 -0.493 8.6666975
-5.1919999 6.934 -0.49399999 8.6764765
-5.2119999 6.915 -0.493 8.6732473
-5.2199998 6.8579998 -0.49000001 8.632535
0 0 0 0
-3.987 5.1820002 -0.361 6.5482531
-6.9000001 8.8990002 -0.62800002 11.278147
-7.0190001 8.993 -0.639 11.425793
-10.902 13.809 -1.008 17.62266
-5.1810002 6.5250001 -0.46700001 8.3448467
-5.1700001 6.4679999 -0.463 8.2932682
-7.77 9.6680002 -0.71200001 12.42377
0 0 0 0
-4.1849999 5.1490002 -0.36899999 6.645494
-4.2350001 5.1599998 -0.373 6.6858025
-5.2049999 6.2849998 -0.45300001 8.1730318
-5.303 6.3639998 -0.463 8.2967873
0 0 0 0
-7.8670001 9.3299999 -0.69800001 12.223984
0 0 0 0
-5.6859999 6.6329999 -0.5 8.750845
-10.918 12.641 -0.94700003 16.730045
-10.931 12.577 -0.94400001 16.690081
-10.944 12.512 -0.94199997 16.649584
-10.917 12.363 -0.93300003 16.519539
-10.924 12.293 -0.92900002 16.471632
-10.925 12.216 -0.92500001 16.414686
-10.935 12.15 -0.92299998 16.37219
-10.926 12.064 -0.91799998 16.302156
-10.937 12 -0.91500002 16.262079
-10.917 11.864 -0.90700001 16.148005
-10.935 11.81 -0.90499997 16.120464
-10.915 11.714 -0.89899999 16.036308
-10.91 11.634 -0.89499998 15.974325
-8.7480001 9.2629995 -0.67400002 12.758719
-10.936 11.516 -0.89099997 15.906233
-10.925 11.397 -0.884 15.812296
-10.917 11.316 -0.88 15.748242
-10.931 11.26 -0.87800002 15.717673
-10.919 11.177 -0.87300003 15.649665
-9.5679998 9.7279997 -0.73699999 13.664691
-9.5559998 9.6239996 -0.73100001 13.582079
-9.5719995 9.5799999 -0.73000002 13.56217
-9.6300001 9.5780001 -0.73199999 13.601868
-9.6999998 9.5869999 -0.736 13.658048
-10.921 10.731 -0.85100001 15.334496
-10.913 10.622 -0.84600002 15.252416
-10.899 10.542 -0.84100002 15.186482
-10.915 10.491 -0.83899999 15.162527
-10.91 10.421 -0.83600003 15.110401
-10.887 10.268 -0.82800001 14.988134
-10.894 10.211 -0.82499999 14.954076
-10.871 10.157 -0.82200003 14.900301
-10.877 10.098 -0.81900001 14.864369
-10.886 10.044 -0.81699997 14.834231
-10.708 9.7539997 -0.79400003 14.506282
-10.725 9.7080002 -0.79299998 14.487917
-10.693 9.6490002 -0.78899997 14.424492
-10.716 9.6079998 -0.78799999 14.414133
-10.819 9.5790005 -0.792 14.471879
-10.882 9.5740004 -0.79500002 14.515903
-10.953 9.5760002 -0.79900002 14.570738
-11.005 9.5609999 -0.801 14.600149
-11.058 9.5760002 -0.80400002 14.650105
-11.197 9.5740004 -0.81099999 14.754389
-11.269 9.5749998 -0.815 14.80997
-11.343 9.5769997 -0.81900001 14.867864
-11.405 9.5679998 -0.82200003 14.909605
-11.472 9.5629997 -0.82499999 14.957886
-11.599 9.5769997 -0.833 15.064848
-11.687 9.5880003 -0.838 15.139946
-11.753 9.5810003 -0.84100002 15.1867
-11.685 9.4639997 -0.83200002 15.059839
-11.906 9.5819998 -0.84899998 15.306481
-12.071 9.6219997 -0.86000001 15.460645
-12.074 9.5620003 -0.85799998 15.425611
-12.209 9.6070004 -0.86699998 15.55975
-12.255 9.5810003 -0.86799997 15.579924
-11.626 9.0290003 -0.81099999 14.742606
-11.72 9.0430002 -0.81599998 14.825658
-10.731 8.1960001 -0.727 13.522474
-10.688 8.1110001 -0.72100002 13.436573
-10.79 8.1350002 -0.72799999 13.532639
-11.764 8.8149996 -0.80900002 14.722445
-10.895 8.1079998 -0.73199999 13.600608
-12.767 9.4130001 -0.889 15.886824
-11.021 8.0679998 -0.73799998 13.678439
-12.819 9.3269997 -0.889 15.877973
-10.934 7.8990002 -0.72600001 13.50828
-10.959 7.8639998 -0.72600001 13.508118
-10.948 7.8039999 -0.72299999 13.46417
-11.048 7.7979999 -0.72799999 13.542418
-11.071 7.7620001 -0.72799999 13.54052
-11.13 7.7509999 -0.73100001 13.582683
-11.059 7.6500001 -0.72299999 13.466504
-10.735 7.3249998 -0.69199997 13.014404
-10.674 7.2589998 -0.68599999 12.926637
-14.175 9.5860004 -0.97500002 17.139797
-14.273 9.5869999 -0.98100001 17.22183
-14.473 9.5900002 -0.99199998 17.390224
-14.566 9.5860004 -0.99800003 17.465845
-14.656 9.6129999 -1.0039999 17.556086
-14.738 9.6000004 -1.008 17.617739
-14.837 9.5979996 -1.0140001 17.699898
-15.04 9.5970001 -1.025 17.870497
-15.115 9.5780001 -1.029 17.923731
-15.198 9.5640001 -1.033 17.986561
-15.289 9.5880003 -1.04 18.076639
-15.489 9.5790005 -1.051 18.242012
-15.258 9.3690004 -1.03 17.934483
-15.318 9.3389997 -1.0319999 17.97006
-12.668 7.664 -0.81699997 14.82844
-12.682 7.645 -0.81699997 14.830599
-12.232 7.2690001 -0.77700001 14.25005
-12.489 7.369 -0.796 14.522772
-12.71 7.4460001 -0.81099999 14.752788
-12.609 7.3330002 -0.801 14.608264
-12.566 7.256 -0.796 14.532292
-16.705999 9.5509996 -1.122 19.276175
-12.944 7.3390002 -0.82200003 14.902475
-16.924999 9.5360003 -1.1339999 19.459621
-13.043 7.2880001 -0.82599998 14.96386
-13.101 7.2670002 -0.829 15.004424
-13.147 7.2379999 -0.82999998 15.030674
-17.528 9.552 -1.171 19.996069
-12.733 6.8790002 -0.79400003 14.494149
-13.273 7.118 -0.83399999 15.08423
-13.094 6.9699998 -0.81800002 14.856071
-13.076 6.9070001 -0.815 14.810559
-12.999 6.7880001 -0.80699998 14.686803
-13.161 6.8200002 -0.81800002 14.845654
-13.44 6.9120002 -0.838 15.136432
-13.415 6.8460002 -0.83399999 15.083948
-13.296 6.7319999 -0.82300001 14.925841
-13.321 6.6919999 -0.824 14.930201
-18.348 9.1210003 -1.2079999 20.525618
-18.462999 9.1059999 -1.214 20.622206
-19.312 9.4499998 -1.277 21.538027
-18.771 9.1120005 -1.233 20.902136
-16.586 7.9510002 -1.063 18.424
-16.638 7.9120002 -1.0650001 18.454187
-16.493 7.7800002 -1.053 18.26626
-16.479 7.71 -1.05 18.223722
-16.531 7.671 -1.052 18.254448
-16.551001 7.5539999 -1.05 18.22364
-16.447001 7.4749999 -1.041 18.095942
-16.313999 7.3530002 -1.029 17.924063
-16.382999 7.322 -1.033 17.974466
-16.341999 7.1810002 -1.026 17.879608
-16.281 7.0929999 -1.02 17.788254
-16.274 7.059 -1.018 17.768198
-16.032 6.8940001 -0.99900001 17.479996
-16.032 6.8340001 -0.99699998 17.456305
-16.007999 6.7059999 -0.99199998 17.384203
-16.025 6.6539998 -0.99199998 17.379885
-16.025999 6.5949998 -0.99000001 17.358191
-16.069 6.5840001 -0.99299997 17.393904
-16.136 6.552 -0.99599999 17.443945
-16.150999 6.4400001 -0.99400002 17.415981
-11.568 4.5799999 -0.71499997 12.462193
-11.58 4.5430002 -0.71499997 12.459795
-16.173 6.243 -0.991 17.36442
-16.17 6.184 -0.98900002 17.340384
-16.209999 6.1409998 -0.99000001 17.36249
-16.132 6.053 -0.98299998 17.25823
-16.224001 6.0300002 -0.98900002 17.336586
-16.222 5.9710002 -0.98699999 17.314165
-16.261 5.928 -0.98900002 17.336073
-16.385 5.8860002 -0.99599999 17.438614
-16.358 5.8179998 -0.99199998 17.390152
-16.452999 5.7940001 -0.99800003 17.471909
-16.552 5.77 -1.0039999 17.55761
-16.584 5.723 -1.005 17.572474
-17.069 5.8010001 -1.038 18.05768
-17.115999 5.757 -1.04 18.088175
-17.172001 5.7160001 -1.043 18.12838
-17.256001 5.684 -1.048 18.198235
-17.497 5.7030001 -1.064 18.433701
-10.136 3.2620001 -0.583 10.663912
-10.123 3.223 -0.58099997 10.639568
-23.011 7.1700001 -1.288 24.136568
-10.104 3.112 -0.57700002 10.58812
-40.749001 12.535 -2.434 42.702827
-10.101 3.0599999 -0.57599998 10.570032
-10.088 3.0209999 -0.574 10.546264
-10.101 2.99 -0.57499999 10.549926
-10.095 2.9200001 -0.57300001 10.524436
-10.133 2.8959999 -0.57499999 10.55439
-10.098 2.852 -0.57200003 10.5086
-10.089 2.832 -0.57099998 10.494484
-10.111 2.8039999 -0.57200003 10.508183
-10.103 2.734 -0.56999999 10.481901
-10.121 2.7049999 -0.56999999 10.491738
-10.093 2.664 -0.56800002 10.454099
-9.9429998 2.608 -0.55599999 10.29437
-10.098 2.5799999 -0.56599998 10.437737
-10.106 2.549 -0.56599998 10.437863
-10.105 2.5139999 -0.56599998 10.428402
-10.097 2.4790001 -0.565 10.412208
-10.145 2.4400001 -0.56699997 10.449695
-10.141 2.405 -0.56599998 10.437636
-10.135 2.3699999 -0.565 10.423739
-10.145 2.339 -0.56599998 10.42652
-10.164 2.3099999 -0.56599998 10.438551
-10.21 2.286 -0.56900001 10.478247
-10.267 2.2479999 -0.57300001 10.525831
-10.313 2.224 -0.57599998 10.56579
-10.408 2.21 -0.58200002 10.655951
-10.485 2.1919999 -0.588 10.727806
-10.596 2.1800001 -0.59600002 10.834335
-10.737 2.174 -0.60600001 10.971631
-11.051 2.1830001 -0.62800002 11.282042
0 0 0 0
-11.092 2.118 -0.63099998 11.310019
-11.381 2.1359999 -0.65200001 11.598049
-43.591999 8.0310001 -2.539 44.398262
-43.997002 7.8909998 -2.562 44.7724
-44.144001 7.7740002 -2.5699999 44.896912
-44.278 7.6539998 -2.5769999 45.008511
-44.491001 7.5469999 -2.589 45.200768
-44.609001 7.4229999 -2.595 45.29678
-44.726002 7.2979999 -2.5999999 45.392025
-45.027 7.1290002 -2.6170001 45.662918
-45.102001 6.9959998 -2.6199999 45.716507
-45.205002 6.8660002 -2.6259999 45.798798
-45.341999 6.7420001 -2.6329999 45.916058
-45.448002 6.6110001 -2.638 46.00201
-45.698002 6.428 -2.652 46.224014
-45.813 6.2969999 -2.658 46.320061
-45.979 6.1729999 -2.6670001 46.468128
-46.101002 6.0419998 -2.6730001 46.572021
-46.290001 5.9190001 -2.684 46.744011
-46.562 5.73 -2.6989999 46.990822
-41.056999 4.9250002 -2.355 41.418339
-46.747002 5.4549999 -2.7090001 47.142105
-46.844002 5.3169999 -2.7130001 47.222786
-47.133999 5.0500002 -2.73 47.482304
-41.159 4.283 -2.3570001 41.448315
-47.669998 4.8800001 -2.7609999 47.998608
-47.907001 4.7529998 -2.7750001 48.222118
-48.271999 4.6350002 -2.7969999 48.574608
-48.698002 4.3670001 -2.822 48.974789
-48.922001 4.2329998 -2.835 49.186558
-49.138 4.0960002 -2.8469999 49.390545
-49.292 4.0300002 -2.8559999 49.538864
-55.098999 4.1799998 -2.921 55.334476
-58.044998 4.2210002 -3.0880001 58.280136
-58.737999 4.086 -3.1259999 58.962868
-59.403999 3.9449999 -3.1630001 59.618813
-50.854 3.2739999 -2.9489999 51.04454
0 0 0 0
-51.568001 2.832 -2.9920001 51.732304
-51.779999 2.6800001 -3.0039999 51.936253
-51.964001 2.526 -3.0150001 52.112648
-51.830002 2.438 -3.007 51.974369
-52.118 2.1229999 -3.0239999 52.248802
-52.004002 1.955 -3.016 52.128059
-51.925999 1.789 -3.0109999 52.04398
-51.902 1.625 -3.0090001 52.014542
-51.582001 1.372 -2.9890001 51.686741
-51.344002 1.204 -2.974 51.444153
-51.029999 1.0369999 -2.954 51.125946
-50.84 0.87300003 -2.9419999 50.932533
-50.821999 0.713 -2.941 50.912014
-50.723 0.55199999 -2.9349999 50.810841
-50.598 0.39199999 -2.927 50.684105
-50.431999 0.153 -2.9170001 50.516518
0 0 0 0
0 0 0 0
0 0 0 0
0 0 0 0
0 0 0 0
0 0 0 0
0 0 0 0
0 0 0 0
0 0 0 0
0 0 0 0
0 0 0 0
0 0 0 0
0 0 0 0
-51.331001 -2.4059999 -2.7019999 51.458344
-51.480999 -2.434 -2.3840001 51.593613
-51.187 -2.6619999 -2.3699999 51.310936
-51.137001 -2.8199999 -2.368 51.269413
-51.150002 -2.9820001 -2.369 51.291588
-51.040001 -3.1370001 -2.3640001 51.190926
-51.095001 -3.4619999 -2.368 51.266869
-51.021999 -3.5380001 -2.3640001 51.199123
-51.139999 -3.7079999 -2.3710001 51.329041
-51.236 -3.8759999 -2.3759999 51.437305
-68.945999 -5.6609998 -3.27 69.255257
-68.889999 -5.875 -3.2679999 69.217247
-68.802002 -6.085 -3.2639999 69.147644
-68.918999 -6.204 -3.2709999 69.27494
-69.044998 -6.434 -3.2780001 69.421562
-69.111 -6.6599998 -3.2820001 69.50869
-54.657001 -5.6079998 -2.5550001 55.003323
-53.040001 -5.6100001 -2.474 53.393208
-51.523998 -5.5310001 -2.398 51.875477
-50.056999 -5.5320001 -2.325 50.41539
-42.358002 -4.9390001 -2.2079999 42.702099
-41.381001 -4.9569998 -2.1530001 41.732414
-41.361 -5.0869999 -2.1530001 41.72823
-41.345001 -5.2160001 -2.1530001 41.728302
-41.368 -5.4169998 -2.1559999 41.776833
-41.236 -5.5320001 -2.1489999 41.660881
-17.024 -2.3529999 -0.86000001 17.207348
-16.795 -2.375 -0.847 16.983229
0 0 0 0
-15.777 -2.3559999 -0.78399998 15.971197
-15.781 -2.4070001 -0.78500003 15.982799
-13.684 -2.128 -0.65399998 13.863909
-13.669 -2.1689999 -0.65399998 13.855462
-13.658 -2.2119999 -0.653 13.851365
-41.897999 -6.9660001 -2.1989999 42.530025
-14.449 -2.4579999 -0.704 14.673479
-16.327 -2.8340001 -0.82200003 16.591509
0 0 0 0
-13.455 -2.418 -0.64300001 13.685657
-13.223 -2.4189999 -0.62900001 13.457151
-14.381 -2.7030001 -0.70300001 14.649694
-14.372 -2.7479999 -0.70300001 14.649235
-14.379 -2.796 -0.704 14.665226
-14.386 -2.8440001 -0.70499998 14.68136
-14.344 -2.8829999 -0.70200002 14.64769
-14.325 -2.9260001 -0.70200002 14.637619
-16.280001 -3.4089999 -0.82599998 16.653587
-16.268999 -3.46 -0.82599998 16.653355
-16.281 -3.516 -0.82800001 16.676893
-16.280001 -3.569 -0.82800001 16.687174
-16.275 -3.622 -0.829 16.693764
-16.271 -3.675 -0.829 16.701447
-16.233999 -3.747 -0.82800001 16.681376
-16.263 -3.8069999 -0.83099997 16.723307
-14.628 -3.47 -0.727 15.051506
0 0 0 0
-14.29 -3.5079999 -0.708 14.731308
-14.291 -3.556 -0.708 14.743782
-14.283 -3.602 -0.70899999 14.747243
-14.278 -3.648 -0.70899999 14.753707
-14.262 -3.6919999 -0.70899999 14.749176
-14.086 -3.7409999 -0.699 14.591063
-13.198 -3.526 -0.64200002 13.675966
-13.196 -3.5699999 -0.64300001 13.685494
-13.183 -3.6110001 -0.64300001 13.683722
-13.171 -3.697 -0.64399999 13.695174
-19.176001 -5.4510002 -0.92400002 19.957109
-18.941999 -5.4499998 -0.912 19.731539
-13.324 -3.8529999 -0.65499997 13.885375
-13.312 -3.895 -0.65499997 13.885583
-13.247 -3.9660001 -0.653 13.843358
-18.514 -5.6170001 -0.99400002 19.372839
-18.363001 -5.6290002 -0.88300002 19.226677
-18.379999 -5.697 -0.88499999 19.263006
-18.365 -5.7249999 -0.88499999 19.257002
-17.320999 -5.4619999 -0.921 18.185122
-16.965 -5.467 -0.89999998 17.846828
-16.792 -5.4699998 -0.88999999 17.68288
-16.627001 -5.473 -0.88 17.526703
-16.469 -5.4499998 -0.87 17.36915
-16.357 -5.527 -0.86500001 17.287203
-16.381001 -5.592 -0.86799997 17.330929
-16.389999 -5.6529999 -0.87 17.359303
-16.395 -5.7119999 -0.87099999 17.383373
-16.274 -5.756 -0.86500001 17.2836
-16.344 -5.8390002 -0.87099999 17.377541
0 0 0 0
0 0 0 0
0 0 0 0
-14.562 -5.4330001 -0.759 15.561023
-14.454 -5.4439998 -0.75300002 15.463579
-14.284 -5.4310002 -0.74299997 15.299688
-14.172 -5.4390001 -0.736 15.197698
-14.056 -5.4450002 -0.73000002 15.091456
-13.949 -5.454 -0.72399998 14.994829
-13.708 -5.434 -0.70999998 14.76285
-13.582 -5.4330001 -0.70200002 14.64517
-13.469 -5.4369998 -0.69599998 14.541641
-13.365 -5.4439998 -0.69 14.447715
-13.233 -5.4390001 -0.68199998 14.323412
-13.139 -5.448 -0.67699999 14.239816
-12.936 -5.4349999 -0.66500002 14.047119
-12.8 -5.4250002 -0.65700001 13.917697
-12.726 -5.441 -0.65399998 13.855803
-12.597 -5.4320002 -0.64600003 13.733476
-12.509 -5.441 -0.64099997 13.65615
-12.322 -5.428 -0.63 13.479308
-12.199 -5.4200001 -0.62300003 13.363388
-12.113 -5.427 -0.61799997 13.287551
-12.016 -5.4289999 -0.61299998 13.199775
-11.84 -5.4390001 -0.60299999 13.043463
-11.747 -5.4180002 -0.59799999 12.95007
-11.661 -5.4229999 -0.59299999 12.873985
-11.548 -5.414 -0.58600003 12.76758
-11.366 -5.4159999 -0.57599998 12.603602
-11.308 -5.4320002 -0.57300001 12.558098
-11.157 -5.3969998 -0.65100002 12.410884
-11.068 -5.3969998 -0.64499998 12.330623
-10.897 -5.3779998 -0.634 12.16838
-10.839 -5.3920002 -0.63099998 12.122531
-10.747 -5.3889999 -0.625 12.038686
-10.684 -5.3990002 -0.62099999 11.986772
-10.59 -5.3940001 -0.616 11.900537
-10.522 -5.401 -0.61199999 11.84305
-10.363 -5.382 -0.60100001 11.692686
-10.279 -5.3790002 -0.59600002 11.616656
-10.214 -5.3860002 -0.59200001 11.562234
-10.116 -5.3759999 -0.58600003 11.470756
-10.066 -5.3889999 -0.583 11.432653
-9.9350004 -5.3800001 -0.57499999 11.312792
-9.8479996 -5.3730001 -0.56999999 11.232859
-9.7840004 -5.3779998 -0.56599998 11.178994
-9.7119999 -5.3790002 -0.56199998 11.116314
-9.6569996 -5.388 -0.55900002 11.072519
-9.5740004 -5.382 -0.55400002 10.997014
-9.4490004 -5.3709998 -0.546 10.882525
-9.3889999 -5.3759999 -0.542 10.832749
-9.3199997 -5.375 -0.53799999 10.772301
-9.2709999 -5.3860002 -0.53600001 10.73535
-9.1829996 -5.3740001 -0.52999997 10.653087
-9.1379995 -5.3860002 -0.528 10.620302
-9.0150003 -5.3709998 -0.51999998 10.506582
-8.9469995 -5.369 -0.51599997 10.447067
-8.8870001 -5.3709998 -0.51200002 10.396564
-8.8219995 -5.3699999 -0.509 10.340389
-8.7629995 -5.3720002 -0.505 10.290946
-8.658 -5.3639998 -0.49900001 10.197179
-8.592 -5.3610001 -0.495 10.139419
-8.5439997 -5.369 -0.49200001 10.102879
-8.4919996 -5.3730001 -0.48899999 10.06093
-8.4309998 -5.3720002 -0.486 10.008813
-8.3179998 -5.3559999 -0.479 9.9048119
-8.2709999 -5.362 -0.47600001 9.8684883
-8.2089996 -5.3590002 -0.472 9.8147507
-8.1569996 -5.362 -0.47 9.77285
-8.052 -5.3660002 -0.46399999 9.6873093
-8.0080004 -5.355 -0.461 9.6445122
-7.9549999 -5.3559999 -0.458 9.6009645
-7.9050002 -5.3590002 -0.45500001 9.5611162
-7.8470001 -5.355 -0.45199999 9.5108223
-7.757 -5.3660002 -0.447 9.4427118
-7.7010002 -5.3629999 -0.44400001 9.3949089
-7.6599998 -5.3530002 -0.44100001 9.355463
-7.6069999 -5.3509998 -0.43799999 9.3108263
-7.5580001 -5.3520002 -0.435 9.2712727
-7.467 -5.3590002 -0.43000001 9.2010803
-7.408 -5.3520002 -0.42699999 9.1490269
-7.3699999 -5.3429999 -0.42399999 9.1128664
-7.3330002 -5.3509998 -0.42199999 9.0875835
-7.2329998 -5.348 -0.417 9.0050697
-7.197 -5.3569999 -0.41499999 8.981452
-7.1399999 -5.3499999 -0.412 8.9315081
-7.0939999 -5.3499999 -0.40900001 8.89464
-7.0650001 -5.3460002 -0.40700001 8.8690243
-6.973 -5.3460002 -0.40200001 8.7956839
-6.9419999 -5.3559999 -0.40099999 8.7771807
-6.8899999 -5.3509998 -0.398 8.7329092
-6.914 -5.388 -0.44400001 8.7767353
-6.723 -5.2719998 -0.428 8.5542908
-6.671 -5.3000002 -0.426 8.5307512
-6.6680002 -5.3319998 -0.42699999 8.5483789
-6.7210002 -5.4089999 -0.43399999 8.6381407
-6.6669998 -5.4000001 -0.43099999 8.5903807
-6.6030002 -5.4000001 -0.42699999 8.5406055
-6.5580001 -5.3979998 -0.42399999 8.5044432
-6.5219998 -5.402 -0.42199999 8.4791613
-6.48 -5.402 -0.41999999 8.4467983
-6.4390001 -5.401 -0.41800001 8.4146442
-6.3660002 -5.3909998 -0.41299999 8.35221
-6.322 -5.388 -0.41 8.3166294
-6.2870002 -5.3920002 -0.40900001 8.2926064
-6.2579999 -5.402 -0.40700001 8.2770662
-6.2080002 -5.3920002 -0.40400001 8.2326269
-6.1739998 -5.3969998 -0.403 8.2102547
-6.1069999 -5.3889999 -0.39899999 8.1545067
-6.0630002 -5.3839998 -0.396 8.1181421
-6.0349998 -5.3930001 -0.39500001 8.1031914
-5.9910002 -5.388 -0.39199999 8.066987
-5.9530001 -5.388 -0.38999999 8.0387096
-5.928 -5.3979998 -0.389 8.0268869
-5.8600001 -5.3870001 -0.38499999 7.9691653
-5.8280001 -5.3920002 -0.38299999 7.9489584
-5.7909999 -5.3909998 -0.38100001 7.921093
-5.7509999 -5.3870001 -0.37900001 7.8890696
-5.723 -5.395 -0.37799999 7.8741121
-5.6529999 -5.3800001 -0.373 7.8128061
-5.6079998 -5.3699999 -0.37 7.773253
-5.5689998 -5.3660002 -0.368 7.7422957
-5.5339999 -5.3660002 -0.366 7.7170634
-5.4629998 -5.3639998 -0.36300001 7.6647654
-5.4429998 -5.3610001 -0.361 7.6483259
-5.415 -5.3670001 -0.36000001 7.6325955
-5.3759999 -5.3610001 -0.35800001 7.6006484
-5.3530002 -5.3730001 -0.35699999 7.5928383
-5.2870002 -5.3730001 -0.354 7.5463119
-5.2639999 -5.3660002 -0.352 7.5251284
-5.2329998 -5.368 -0.35100001 7.504859
-5.191 -5.3590002 -0.34799999 7.4690342
-5.1220002 -5.3540001 -0.34400001 7.4174485
-5.0910001 -5.355 -0.34299999 7.3967533
-5.0630002 -5.3590002 -0.34200001 7.3803668
-5.0430002 -5.3540001 -0.34 7.3629322
-4.9889998 -5.3639998 -0.338 7.3332705
-4.954 -5.3600001 -0.336 7.3064775
-4.9229999 -5.3600001 -0.33500001 7.2854481
-4.8990002 -5.368 -0.33399999 7.2751074
-4.881 -5.3649998 -0.333 7.260735
-4.8130002 -5.3569999 -0.329 7.2090678
-4.7880001 -5.3629999 -0.32800001 7.1968255
-4.7690001 -5.375 -0.32800001 7.1931615
-4.7820001 -5.4250002 -0.331 7.2393174
-4.7670002 -5.4429998 -0.331 7.2429347
-4.776 -5.5040002 -0.33500001 7.2949586
-4.7740002 -5.5380001 -0.33700001 7.3194323
-4.7649999 -5.5630002 -0.338 7.3325601
-4.7670002 -5.6009998 -0.34 7.3628182
-4.7649999 -5.6339998 -0.34200001 7.3867545
-4.7649999 -5.6890001 -0.345 7.4289279
-4.7649999 -5.7249999 -0.347 7.456625
-4.7519999 -5.7459998 -0.34799999 7.4645243
-5.197 -6.3280001 -0.40200001 8.1984148
-5.2010002 -6.3740001 -0.405 8.2366438
-5.1929998 -6.4060001 -0.40599999 8.2564478
-5.2090001 -6.4879999 -0.41100001 8.330471
-5.2049999 -6.5250001 -0.41299999 8.356926
-5.1989999 -6.5599999 -0.41499999 8.3806581
-5.2049999 -6.6110001 -0.41800001 8.4244919
-5.204 -6.652 -0.421 8.4562378
-5.1950002 -6.684 -0.42199999 8.4759645
-5.198 -6.7529998 -0.426 8.5325069
-5.197 -6.796 -0.42899999 8.566123
-5.1960001 -6.8400002 -0.43099999 8.6005688
-5.1929998 -6.8800001 -0.43399999 8.6307592
-5.191 -6.9239998 -0.43599999 8.6647758
-5.1950002 -6.9980001 -0.44100001 8.726656
-5.1890001 -7.0349998 -0.442 8.7528458
-5.2030001 -7.1009998 -0.447 8.8144884
-5.1490002 -7.072 -0.40000001 8.75702
-5.138 -7.105 -0.40099999 8.7772932
-5.1300001 -7.1399999 -0.403 8.801074
-5.1409998 -7.2280002 -0.40799999 8.8792076
-5.1420002 -7.276 -0.41100001 8.9190397
-5.1420002 -7.3249998 -0.414 8.9591951
-5.1399999 -7.3699999 -0.41600001 8.9949741
-5.1300001 -7.4549999 -0.421 9.0593138
-5.1399999 -7.4959998 -0.42300001 9.0988207
-5.1360002 -7.54 -0.426 9.1329937
-5.1389999 -7.5960002 -0.42899999 9.1810989
-5.1300001 -7.6859999 -0.43399999 9.2509375
-5.1329999 -7.7420001 -0.43700001 9.2993135
-5.1259999 -7.7849998 -0.43900001 9.3313885
-5.1339998 -7.823 -0.442 9.3676386
-5.132 -7.8740001 -0.44499999 9.4093218
-5.132 -7.9829998 -0.45100001 9.5010061
-5.1300001 -8.0340004 -0.454 9.5429649
-5.131 -8.092 -0.45699999 9.5925217
-5.132 -8.1210003 -0.45899999 9.6176271
-5.1329999 -8.2370005 -0.46599999 9.7166357
-5.1230001 -8.2790003 -0.46799999 9.7471027
-5.1300001 -8.3470001 -0.472 9.8087769
-5.125 -8.3990002 -0.47499999 9.8506069
-5.1209998 -8.4510002 -0.47799999 9.893055
-5.125 -8.5480003 -0.484 9.9783859
-5.1199999 -8.6000004 -0.48699999 10.020557
-5.125 -8.6700001 -0.491 10.083432
-5.125 -8.7320004 -0.495 10.136986
-5.1160002 -8.7810001 -0.49700001 10.174794
-5.1269999 -8.8950005 -0.50400001 10.279162
-5.1220002 -8.9510002 -0.50700003 10.325325
-5.1160002 -9.0059996 -0.51099998 10.370275
-5.1160002 -9.0710001 -0.514 10.426922
-5.1079998 -9.1239996 -0.51700002 10.469303
-5.0799999 -9.1409998 -0.51700002 10.47051
-5.0139999 -9.1230001 -0.514 10.422741
-4.98 -9.1300001 -0.51300001 10.412515
-4.948 -9.1389999 -0.51300001 10.405152
-4.9099998 -9.1370001 -0.51200002 10.385327
-4.8769999 -9.1450005 -0.51099998 10.376766
-4.8649998 -9.2259998 -0.51599997 10.442871
-4.862 -9.2910004 -0.51899999 10.4991
-4.875 -9.3870001 -0.52600002 10.59047
-4.8520002 -9.415 -0.52700001 10.604804
-4.8540001 -9.4919996 -0.53100002 10.674331
-4.862 -9.618 -0.53899997 10.790528
-4.8520002 -9.6739998 -0.54299998 10.83619
-4.8590002 -9.7629995 -0.54799998 10.919082
-4.8379998 -9.7980003 -0.55000001 10.941186
-4.842 -9.8839998 -0.55500001 11.020274
-4.8390002 -10.037 -0.565 11.156904
-4.8470001 -10.093 -0.56800002 11.210918
-4.8439999 -10.169 -0.57300001 11.278352
-4.842 -10.246 -0.57800001 11.347228
-4.7789998 -10.279 -0.57800001 11.350365
-4.7779999 -10.361 -0.583 11.424513
0 0 0 0
-5.0939999 -11.182 -0.64300001 12.304447
-5.04 -11.25 -0.64600003 12.344287
-5.0380001 -11.351 -0.56599998 12.431693
-5.0780001 -11.539 -0.57700002 12.620124
-5.0560002 -11.539 -0.57700002 12.611288
-5.02 -11.555 -0.57700002 12.611557
-4.9289999 -11.542 -0.574 12.56353
-4.8920002 -11.558 -0.574 12.563778
-4.8460002 -11.549 -0.57200003 12.537556
-4.8460002 -11.601 -0.57499999 12.585608
-4.8039999 -11.601 -0.574 12.56945
-4.8429999 -11.909 -0.59299999 12.869755
-4.8520002 -12.039 -0.60000002 12.993822
-4.8400002 -12.119 -0.60500002 13.063759
-4.836 -12.221 -0.61000001 13.157197
-4.8520002 -12.318 -0.616 13.25347
-4.7709999 -12.341 -0.616 13.245459
-4.7319999 -12.354 -0.616 13.243587
-4.684 -12.346 -0.61400002 13.218946
-4.6430001 -12.354 -0.61400002 13.211956
-4.5689998 -12.334 -0.611 13.167256
-4.5320001 -12.352 -0.611 13.171342
-4.4879999 -12.351 -0.61000001 13.155281
-4.4349999 -12.326 -0.60799998 13.113701
-4.4180002 -12.402 -0.61199999 13.179639
-4.402 -12.482 -0.616 13.249807
-5.0780001 -14.631 -0.755 15.505556
-5.0799999 -14.788 -0.76499999 15.654922
-5.0609999 -14.886 -0.76999998 15.741652
-5.0599999 -15.036 -0.77899998 15.883695
-5.053 -15.175 -0.787 16.013519
-5.0630002 -15.447 -0.80299997 16.275398
-5.066 -15.624 -0.81300002 16.444899
-5.059 -15.771 -0.82200003 16.582932
-5.046 -15.903 -0.829 16.704933
-5.0320001 -16.035 -0.83700001 16.826847
-5.0300002 -16.299 -0.85299999 17.078814
-5.04 -16.516001 -0.866 17.289589
-3.7809999 -12.509 -0.60600001 13.081983
-7.7940001 -26.076 -1.336 27.248653
-7.7350001 -26.181 -1.341 27.33264
-7.6939998 -26.499001 -1.357 27.626728
-5.4559999 -19.042 -0.917 19.829437
-7.6469998 -26.966 -1.382 28.063351
0 0 0 0
-3.4130001 -12.33 -0.58899999 12.807201
-3.372 -12.335 -0.588 12.801107
-3.3080001 -12.326 -0.58700001 12.775669
-3.2650001 -12.321 -0.58600003 12.759728
-3.223 -12.318 -0.58499998 12.7461
-3.1819999 -12.32 -0.58499998 12.737729
-3.099 -12.318 -0.583 12.715219
-3.075 -12.306 -0.58200002 12.697716
-3.039 -12.325 -0.583 12.707519
-2.997 -12.321 -0.58200002 12.693612
-2.951 -12.301 -0.57999998 12.663309
-2.8699999 -12.3 -0.579 12.64366
-2.832 -12.315 -0.579 12.649691
-2.802 -12.273 -0.57599998 12.601965
-2.7690001 -12.305 -0.57800001 12.625944
-2.6930001 -12.33 -0.57800001 12.633892
-2.655 -12.342 -0.57800001 12.637567
-2.612 -12.327 -0.57700002 12.613897
-2.5880001 -12.311 -0.57599998 12.593261
-2.55 -12.323 -0.57599998 12.597245
-2.47 -12.325 -0.57499999 12.583209
-2.431 -12.329 -0.57499999 12.579533
-2.392 -12.337 -0.57499999 12.579899
-2.369 -12.321 -0.574 12.559805
-2.2880001 -12.318 -0.57200003 12.54174
-2.2490001 -12.323 -0.57200003 12.539598
-2.2079999 -12.316 -0.57099998 12.52538
-2.1689999 -12.323 -0.57099998 12.525451
-2.1300001 -12.324 -0.57099998 12.519741
-2.069 -12.32 -0.56999999 12.505521
-2.03 -12.323 -0.56999999 12.502085
-1.989 -12.315 -0.56900001 12.487557
-1.951 -12.325 -0.56900001 12.491428
-1.911 -12.323 -0.56900001 12.483269
-1.87 -12.318 -0.56800002 12.472075
-1.8099999 -12.312 -0.56699997 12.457244
-1.772 -12.322 -0.56699997 12.461667
-1.732 -12.32 -0.56699997 12.454063
-1.693 -12.319 -0.56699997 12.44771
-1.653 -12.316 -0.56599998 12.439318
-1.613 -12.278 -0.64999998 12.400547
-1.556 -12.325 -0.56599998 12.435719
-1.515 -12.276 -0.64899999 12.386146
-1.473 -12.257 -0.64700001 12.362135
-1.437 -12.317 -0.565 12.413408
-1.398 -12.278 -0.648 12.374312
-1.337 -12.263 -0.64700001 12.352625
-1.299 -12.273 -0.64700001 12.3585
-1.26 -12.271 -0.64700001 12.352475
-1.222 -12.275 -0.64700001 12.352632
-1.142 -12.259 -0.64499998 12.328961
-1.123 -12.258 -0.64499998 12.326221
-1.086 -12.276 -0.64600003 12.340862
-1.045 -12.257 -0.64399999 12.318312
-1.006 -12.256 -0.64399999 12.314069
-0.92900002 -12.263 -0.64399999 12.314988
-0.88999999 -12.261 -0.64399999 12.310116
-0.87199998 -12.277 -0.64499998 12.32482
-0.83200002 -12.254 -0.64300001 12.299032
-0.75599998 -12.276 -0.64399999 12.316105
-0.71499997 -12.247 -0.64200002 12.28464
-0.67799997 -12.265 -0.64300001 12.300544
-0.65899998 -12.268 -0.64300001 12.302502
-0.61900002 -12.248 -0.64200002 12.280425
-0.54299998 -12.274 -0.64300001 12.30282
-0.50599998 -12.313 -0.64600003 12.340312
0 0 0 0
-0.175 -5.2709999 -0.252 5.2799211
-0.15800001 -5.2639999 -0.252 5.2723961
-0.141 -5.2470002 -0.25 5.2548447
-0.125 -5.2550001 -0.25099999 5.262476
-0.108 -5.2509999 -0.25 5.2580571
-0.1 -5.2519999 -0.25 5.2588973
-0.067000002 -5.2519999 -0.25 5.2583733
-0.050999999 -5.2459998 -0.25 5.2522011
-0.034000002 -5.2659998 -0.252 5.2721353
-0.017999999 -5.2459998 -0.25 5.2519841
-0.0089999996 -5.25 -0.25 5.2559566
0.024 -5.256 -0.25099999 5.2620444
0.039999999 -5.2600002 -0.25099999 5.2661376
0.057 -5.2519999 -0.25 5.2582555
0.072999999 -5.2579999 -0.25099999 5.2644935
0.090000004 -5.2600002 -0.25099999 5.2667546
0.115 -5.2610002 -0.25099999 5.26824
0.131 -5.2589998 -0.25099999 5.2666159
0.148 -5.2519999 -0.25099999 5.2600765
0.164 -5.2420001 -0.25 5.2505202
0.18099999 -5.263 -0.252 5.2721376
0.205 -5.2420001 -0.25 5.2519608
0.222 -5.2540002 -0.25099999 5.2646751
0.23899999 -5.2649999 -0.252 5.276443
0.255 -5.256 -0.25099999 5.2681651
0.61199999 -11.833 -0.61299998 11.864662
0.64899999 -11.829 -0.61299998 11.862639
0.68699998 -11.841 -0.61400002 11.876794
0.74199998 -11.827 -0.61299998 11.866096
0.778 -11.809 -0.61199999 11.850414
0.81599998 -11.811 -0.61199999 11.854962
0 0 0 0
0.89200002 -11.827 -0.61400002 11.876472
0 0 0 0
0.98500001 -11.826 -0.61400002 11.882824
1.023 -11.831 -0.61500001 11.89106
1.069 -11.927 -0.62199998 11.990953
1.1339999 -11.82 -0.61500001 11.890187
1.151 -11.795 -0.61299998 11.866869
0 0 0 0
1.227 -11.809 -0.61500001 11.888492
1.265 -11.815 -0.61500001 11.898431
0 0 0 0
1.36 -11.823 -0.61699998 11.916946
1.397 -11.816 -0.61699998 11.914284
1.431 -11.792 -0.61500001 11.894421
1.5089999 -11.809 -0.61699998 11.921
1.558 -11.899 -0.62400001 12.016778
0 0 0 0
1.603 -11.808 -0.61799997 11.932325
1.642 -11.819 -0.61900002 11.948561
0 0 0 0
1.7539999 -11.807 -0.61900002 11.952613
1.781 -11.736 -0.61500001 11.88629
1.811 -11.808 -0.62 11.962148
1.849 -11.805 -0.62 11.965
1.936 -11.878 -0.62599999 12.05101
0 0 0 0
2.0009999 -11.804 -0.62199998 11.988548
2.0380001 -11.802 -0.62199998 11.992811
0 0 0 0
2.135 -11.807 -0.62300003 12.014642
2.1860001 -11.875 -0.62900001 12.0909
0 0 0 0
2.2479999 -11.798 -0.62400001 12.026458
2.3310001 -11.926 -0.634 12.168196
0 0 0 0
2.385 -11.806 -0.62699997 12.060803
2.4189999 -11.787 -0.62599999 12.048934
0 0 0 0
2.4979999 -11.793 -0.62699997 12.070956
2.5780001 -11.898 -0.63499999 12.19064
0 0 0 0
2.6329999 -11.792 -0.62900001 12.098743
2.6760001 -11.809 -0.63099998 12.124835
2.7279999 -11.778 -0.63 12.106204
2.7690001 -11.787 -0.63099998 12.12431
2.8150001 -11.819 -0.634 12.16614
0 0 0 0
2.8859999 -11.786 -0.63300002 12.1507
2.931 -11.812 -0.63499999 12.186769
2.9820001 -11.776 -0.634 12.164228
3.027 -11.798 -0.63599998 12.196723
3.0699999 -11.814 -0.63800001 12.223033
0 0 0 0
3.1429999 -11.79 -0.63700002 12.21836
3.1889999 -11.815 -0.63999999 12.254531
3.243 -11.792 -0.639 12.246494
3.279 -11.778 -0.639 12.242608
3.3199999 -11.781 -0.63999999 12.256589
3.3710001 -11.82 -0.64399999 12.308159
3.444 -11.795 -0.64300001 12.304333
3.503 -11.914 -0.56599998 12.431201
3.4909999 -11.75 -0.64099997 12.274382
3.533 -11.754 -0.64200002 12.290271
3.575 -11.762 -0.64399999 12.310159
3.6570001 -11.764 -0.64600003 12.336234
3.5079999 -11.221 -0.60699999 11.772228
3.5480001 -11.224 -0.60799998 11.787118
3.5880001 -11.229 -0.60900003 11.804028
3.608 -11.169 -0.60500002 11.752883
3.681 -11.153 -0.60600001 11.760374
3.72 -11.155 -0.60699999 11.774586
3.7390001 -11.153 -0.60699999 11.778708
3.7780001 -11.153 -0.60799998 11.791198
3.8570001 -11.157 -0.61000001 11.820625
3.8940001 -11.15 -0.611 11.826202
3.938 -11.164 -0.61199999 11.853998
3.9590001 -11.168 -0.61299998 11.864808
4.0180001 -11.221 -0.61799997 11.934701
3.497 -9.5649996 -0.49900001 10.196432
3.536 -9.5790005 -0.5 10.22304
3.5699999 -9.5790005 -0.50099999 10.234899
3.5869999 -9.5790005 -0.50199997 10.24089
3.6199999 -9.5749998 -0.50199997 10.248757
3.6860001 -9.5670004 -0.50300002 10.264848
3.723 -9.5740004 -0.505 10.284806
3.7579999 -9.5749998 -0.50599998 10.298506
3.7909999 -9.5690002 -0.50599998 10.305022
3.8469999 -9.5790005 -0.50800002 10.335121
3.8789999 -9.5719995 -0.509 10.340643
3.915 -9.5749998 -0.50999999 10.357024
3.9530001 -9.5810003 -0.51099998 10.377037
3.9809999 -9.5649996 -0.51099998 10.372979
4.0110002 -9.5500002 -0.51099998 10.370716
0 0 0 0
4.1389999 -9.6429996 -0.51999998 10.506624
4.158 -9.6049995 -0.51800001 10.479184
4.151 -9.5059996 -0.51200002 10.385422
4.1529999 -9.4300003 -0.50700003 10.316461
4.1409998 -9.283 -0.49700001 10.176885
4.2529998 -9.4540005 -0.51099998 10.379174
0 0 0 0
4.1500001 -9.0710001 -0.484 9.9869814
4.1690001 -9.0380001 -0.48300001 9.9649038
3.0020001 -6.4429998 -0.36899999 7.1176128
3.0680001 -6.52 -0.329 7.2132702
0 0 0 0
4.1869998 -8.7329998 -0.51200002 9.6983709
4.1830001 -8.6549997 -0.50700003 9.6261911
4.2160001 -8.6190004 -0.505 9.6081657
4.2090001 -8.5380001 -0.5 9.5322151
0 0 0 0
4.2319999 -8.4510002 -0.495 9.4643669
4.243 -8.4049997 -0.49200001 9.4281034
3.388 -6.6469998 -0.34799999 7.4687519
3.3940001 -6.6079998 -0.34599999 7.4367075
0 0 0 0
4.2550001 -8.1429996 -0.47499999 9.1999502
3.5150001 -6.6849999 -0.35499999 7.5611162
3.3740001 -6.348 -0.32800001 7.1964273
3.4460001 -6.4330001 -0.336 7.3055668
3.517 -6.5159998 -0.34400001 7.4125485
3.2539999 -5.9920001 -0.34599999 6.8273201
3.5139999 -6.3790002 -0.38299999 7.2929096
3.4170001 -6.1550002 -0.36399999 7.0492845
3.938 -7.0500002 -0.39300001 8.0848503
3.375 -6.0120001 -0.352 6.9035263
3.638 -6.4219999 -0.34200001 7.3887815
3.596 -6.2579999 -0.33000001 7.225142
3.6389999 -6.2859998 -0.33399999 7.2710161
3.5320001 -6.0669999 -0.36199999 7.0295486
3.5109999 -6.0079999 -0.35699999 6.9678283
3.29 -5.546 -0.31600001 6.4561653
3.221 -5.3889999 -0.30199999 6.2854886
3.224 -5.3569999 -0.30000001 6.2595224
3.2520001 -5.3660002 -0.30199999 6.2817726
3.267 -5.3520002 -0.30199999 6.2776108
3.349 -5.428 -0.31 6.3855371
3.3499999 -5.3920002 -0.308 6.3553939
3.401 -5.4380002 -0.31299999 6.4215746
3.48 -5.5250001 -0.32300001 6.5376105
3.5439999 -5.5879998 -0.33000001 6.625298
3.5569999 -5.5700002 -0.329 6.617053
3.5710001 -5.5349998 -0.32699999 6.5950885
3.665 -5.6430001 -0.33899999 6.7372541
3.619 -5.533 -0.329 6.6196294
3.5339999 -5.3639998 -0.31400001 6.4311929
3.49 -5.2600002 -0.30500001 6.3198676
3.5090001 -5.2350001 -0.30399999 6.3095737
3.506 -5.1960001 -0.30199999 6.2754807
3.513 -5.1700001 -0.30000001 6.2578006
3.527 -5.1560001 -0.30000001 6.2541242
3.539 -5.1399999 -0.29899999 6.2476816
3.5669999 -5.1279998 -0.30000001 6.2537885
3.602 -5.1440001 -0.303 6.2870464
3.628 -5.1459999 -0.30399999 6.303659
3.6500001 -5.1430001 -0.30500001 6.313951
3.6900001 -5.1659999 -0.308 6.3559833
3.7130001 -5.164 -0.30899999 6.3677897
3.744 -5.1560001 -0.31 6.3794961
3.799 -5.197 -0.315 6.4451871
3.8039999 -5.1690001 -0.31400001 6.4255409
3.7869999 -5.112 -0.30899999 6.3694105
3.8210001 -5.1240001 -0.31200001 6.3994346
3.875 -5.1459999 -0.31600001 6.4495578
3.8989999 -5.145 -0.317 6.4632587
3.9189999 -5.138 -0.317 6.4697833
3.944 -5.1370001 -0.31799999 6.4842138
4.1830001 -5.3800001 -0.345 6.8235559
4.1939998 -5.3769999 -0.34599999 6.8279924
4.1739998 -5.316 -0.34099999 6.7674522
4.1360002 -5.2340002 -0.33399999 6.6792822
4.1220002 -5.1820002 -0.33000001 6.6296992
4.0580001 -5.0359998 -0.31799999 6.4753213
4.073 -5.0370002 -0.31799999 6.4855089
4.0869999 -5.0229998 -0.31799999 6.4834571
4.0689998 -4.9679999 -0.31400001 6.429337
4.0609999 -4.895 -0.30899999 6.3677487
4.1230001 -4.9390001 -0.315 6.4414344
4.2270002 -5.0320001 -0.32600001 6.5798807
4.2810001 -5.0799999 -0.33199999 6.6515851
4.4219999 -5.1820002 -0.345 6.8210144
4.335 -5.0469999 -0.33199999 6.6614308
4.1389999 -4.7870002 -0.30599999 6.3356395
4.3260002 -4.973 -0.32800001 6.5994387
4.5190001 -5.1799998 -0.34999999 6.8830419
4.5910001 -5.197 -0.35499999 6.9434943
4.625 -5.2020001 -0.35699999 6.9698553
4.6550002 -5.2030001 -0.359 6.9906449
4.6810002 -5.1989999 -0.36000001 7.0050669
4.7340002 -5.2080002 -0.36300001 7.0473962
4.8429999 -5.289 -0.32699999 7.1787949
4.8720002 -5.2870002 -0.32800001 7.1969676
4.9060001 -5.29 -0.33000001 7.2223153
4.927 -5.296 -0.331 7.2410293
4.9549999 -5.2919998 -0.333 7.2572846
5.0180001 -5.2919998 -0.336 7.300581
5.0430002 -5.2849998 -0.33700001 7.3127728
5.0679998 -5.2779999 -0.338 7.3250356
5.098 -5.2930002 -0.34 7.3567014
5.1220002 -5.2839999 -0.34099999 7.366941
5.191 -5.289 -0.34400001 7.4187832
5.217 -5.2810001 -0.345 7.4313574
5.244 -5.276 -0.34599999 7.4468398
5.289 -5.2870002 -0.34900001 7.4865007
5.3309999 -5.2789998 -0.35100001 7.5106988
5.3759999 -5.29 -0.354 7.550549
5.401 -5.2820001 -0.35499999 7.5628271
5.427 -5.2729998 -0.35600001 7.5751958
5.4720001 -5.283 -0.359 7.6145749
5.5180001 -5.2779999 -0.361 7.64434
5.5650001 -5.29 -0.36399999 7.6867299
5.585 -5.2750001 -0.36399999 7.6909266
5.6279998 -5.2820001 -0.36700001 7.7271338
5.6630001 -5.2820001 -0.36899999 7.752758
5.6950002 -5.277 -0.37 7.7728152
5.7649999 -5.2919998 -0.375 7.83461
5.7880001 -5.2789998 -0.37599999 7.8428416
5.8280001 -5.2820001 -0.37799999 7.8745155
5.8649998 -5.283 -0.38 7.9027028
5.9029999 -5.283 -0.382 7.9310417
5.9629998 -5.2870002 -0.38600001 7.978642
5.9980001 -5.2839999 -0.38699999 8.0029011
6.04 -5.2870002 -0.38999999 8.0365458
6.079 -5.2880001 -0.39199999 8.0666504
6.119 -5.2880001 -0.39399999 8.0969343
6.1529999 -5.2839999 -0.396 8.1201525
6.2160001 -5.2870002 -0.40000001 8.1701307
6.2600002 -5.2909999 -0.40200001 8.2063322
6.2989998 -5.289 -0.40400001 8.2349339
6.3379998 -5.2880001 -0.40700001 8.2643108
6.3720002 -5.2820001 -0.40799999 8.2866383
6.4400001 -5.2880001 -0.412 8.3430386
6.5029998 -5.3049998 -0.417 8.4027328
6.5229998 -5.2870002 -0.417 8.406889
6.5700002 -5.2909999 -0.41999999 8.446063
6.6009998 -5.2820001 -0.421 8.4646301
6.6570001 -5.2919998 -0.42500001 8.5147839
6.7270002 -5.296 -0.42899999 8.5722923
6.7579999 -5.2859998 -0.43099999 8.5905828
6.8080001 -5.2909999 -0.43399999 8.6331863
6.8429999 -5.2839999 -0.435 8.6565886
6.8979998 -5.2909999 -0.43900001 8.7045851
6.967 -5.2919998 -0.44299999 8.7601709
6.9330001 -5.2329998 -0.396 8.6952629
6.9829998 -5.2360001 -0.398 8.7370701
7.0310001 -5.2379999 -0.40099999 8.7768106
7.1160002 -5.2319999 -0.40599999 8.8417263
7.1690001 -5.237 -0.40900001 8.8875198
7.1950002 -5.2379999 -0.41 8.9091396
7.243 -5.2389998 -0.41299999 8.9486723
7.2969999 -5.243 -0.41600001 8.9949055
7.3839998 -5.2360001 -0.421 9.0618095
7.434 -5.237 -0.42399999 9.1033125
7.4640002 -5.2399998 -0.42500001 9.1295958
7.5159998 -5.2420001 -0.428 9.17344
7.6110001 -5.237 -0.43399999 9.2488832
7.652 -5.23 -0.43599999 9.2787981
7.711 -5.2360001 -0.43900001 9.3310204
7.744 -5.223 -0.44100001 9.3511362
7.8600001 -5.2470002 -0.44800001 9.4610424
7.8979998 -5.237 -0.44999999 9.4872055
7.948 -5.2340002 -0.45300001 9.5273638
8.0059996 -5.237 -0.456 9.5775852
8.0489998 -5.2290001 -0.458 9.6092978
8.1590004 -5.2459998 -0.465 9.7111292
8.2040005 -5.2389998 -0.46799999 9.7453461
8.2519999 -5.2329998 -0.47 9.7826729
8.3330002 -5.2480001 -0.47499999 9.8593111
8.3629999 -5.23 -0.477 9.8752317
8.4399996 -5.2420001 -0.48100001 9.9470358
8.5389996 -5.2480001 -0.48800001 10.034648
8.5830002 -5.2379999 -0.49000001 10.067007
8.6540003 -5.244 -0.49399999 10.130908
8.6890001 -5.2290001 -0.49599999 10.153186
8.7740002 -5.2420001 -0.50099999 10.23292
8.8739996 -5.2459998 -0.50700003 10.321116
8.9230003 -5.237 -0.50999999 10.358871
8.9980001 -5.243 -0.514 10.426757
9.04 -5.23 -0.51599997 10.456613
9.1190004 -5.2379999 -0.52100003 10.529209
9.2390003 -5.2490001 -0.52899998 10.639124
9.2930002 -5.2420001 -0.53200001 10.682764
9.3669996 -5.2449999 -0.537 10.748911
9.4130001 -5.2319999 -0.53899997 10.782806
9.4890003 -5.2350001 -0.54400003 10.850912
9.6079998 -5.2420001 -0.551 10.958824
9.6730003 -5.2389998 -0.55500001 11.01463
9.7480001 -5.2399998 -0.55900002 11.081226
9.8109999 -5.2350001 -0.56300002 11.134538
9.9639997 -5.2360001 -0.57200003 11.2705
10.026 -5.2290001 -0.57599998 11.322318
10.097 -5.2459998 -0.58099997 11.393309
10.159 -5.2379999 -0.58399999 11.44478
10.238 -5.2379999 -0.58899999 11.515216
10.382 -5.23 -0.59799999 11.640293
10.447 -5.2220001 -0.60100001 11.694883
10.526 -5.2410002 -0.60699999 11.774261
10.575 -5.224 -0.60900003 11.810659
10.887 -5.2940001 -0.63099998 12.12235
7.2160001 -3.503 -0.389 8.0307531
0 0 0 0
11.2 -5.3330002 -0.565 12.417734
0 0 0 0
0 0 0 0
0 0 0 0
0 0 0 0
0 0 0 0
0 0 0 0
0 0 0 0
0 0 0 0
0 0 0 0
0 0 0 0
0 0 0 0
0 0 0 0
8.3409996 -3.493 -0.465 9.0548077
8.3549995 -3.4690001 -0.465 9.0584879
8.4049997 -3.4579999 -0.46799999 9.1005936
8.1929998 -3.3269999 -0.44999999 8.8541899
8.1610003 -3.2839999 -0.447 8.8083134
8.1709995 -3.2579999 -0.447 8.8079281
8.1689997 -3.2279999 -0.44600001 8.7949677
8.1680002 -3.198 -0.44499999 8.783021
8.1730003 -3.1849999 -0.44499999 8.7829485
8.1829996 -3.1300001 -0.44400001 8.7724295
0 0 0 0
0 0 0 0
0 0 0 0
0 0 0 0
0 0 0 0
0 0 0 0
0 0 0 0
0 0 0 0
0 0 0 0
0 0 0 0
7.2309999 -2.461 -0.361 7.646843
7.2220001 -2.4330001 -0.36000001 7.6293106
7.2160001 -2.4059999 -0.359 7.6150093
7.2750001 -2.4000001 -0.36300001 7.6692495
7.2579999 -2.369 -0.361 7.6433659
7.2969999 -2.3440001 -0.36300001 7.6728292
7.3039999 -2.3210001 -0.36300001 7.6724982
0 0 0 0
0 0 0 0
0 0 0 0
0 0 0 0
0 0 0 0
0 0 0 0
0 0 0 0
0 0 0 0
0 0 0 0
8.184 -2.289 -0.42500001 8.5087013
0 0 0 0
8.2639999 -2.2550001 -0.43000001 8.5769234
8.2980003 -2.2360001 -0.43200001 8.6048317
0 0 0 0
8.5600004 -2.234 -0.44999999 8.8581524
8.6540003 -2.23 -0.45699999 8.9483786
8.7790003 -2.2320001 -0.46599999 9.0702715
12.278 -3.0480001 -0.57999998 12.663963
12.285 -3.0090001 -0.57999998 12.661426
12.271 -2.9849999 -0.579 12.642108
12.276 -2.9449999 -0.57800001 12.637535
12.3 -2.8699999 -0.579 12.64366
12.255 -2.819 -0.57499999 12.588185
12.267 -2.7809999 -0.57499999 12.591421
12.26 -2.7590001 -0.57499999 12.579758
12.267 -2.6800001 -0.574 12.569454
12.279 -2.642 -0.574 12.573126
12.288 -2.6040001 -0.574 12.573991
12.267 -2.559 -0.57300001 12.544166
12.28 -2.5220001 -0.57300001 12.549391
12.276 -2.461 -0.57200003 12.533311
12.28 -2.421 -0.57200003 12.529438
12.274 -2.3800001 -0.57099998 12.515651
12.319 -2.348 -0.57300001 12.553852
12.302 -2.3050001 -0.57200003 12.529142
12.339 -2.2520001 -0.57300001 12.555904
0 0 0 0
12.325 -2.1700001 -0.57200003 12.527637
12.398 -2.1470001 -0.66399997 12.600036
12.393 -2.1059999 -0.66299999 12.58814
12.436 -2.0680001 -0.57700002 12.61997
0 0 0 0
0 0 0 0
12.894 -1.998 -0.60500002 13.061901
0 0 0 0
13.474 -1.979 -0.63999999 13.633588
0 0 0 0
13.957 -1.959 -0.66900003 14.10968
14.262 -1.956 -0.68800002 14.411937
25.058001 -3.319 -1.226 25.306564
26.115999 -3.3770001 -1.286 26.364813
26.108999 -3.293 -1.285 26.3472
26.075001 -3.2049999 -1.2819999 26.302494
26.032 -3.1170001 -1.279 26.249125
25.997999 -3.03 -1.277 26.205107
26.028999 -2.951 -1.278 26.226904
26.268999 -2.8529999 -1.291 26.454992
26.454 -2.789 -1.301 26.63241
26.417 -2.701 -1.299 26.586475
0 0 0 0
13.187 -1.2640001 -0.61699998 13.261801
11.245 -1.01 -0.57499999 11.304899
10.98 -0.96799999 -0.55599999 11.0366
12.235 -1.043 -0.64300001 12.2962
0 0 0 0
13.344 -1.0470001 -0.625 13.399595
11.464 -0.83099997 -0.58899999 11.509161
11.444 -0.79299998 -0.58700001 11.486451
11.459 -0.77600002 -0.588 11.500287
11.438 -0.73900002 -0.58600003 11.476818
11.448 -0.667 -0.58700001 11.482429
11.448 -0.63099998 -0.58700001 11.480393
12.124 -0.63200003 -0.63300002 12.156952
12.125 -0.61199999 -0.63300002 12.156926
11.421 -0.50300002 -0.58399999 11.446977
11.426 -0.46799999 -0.58499998 11.450534
26.493 -0.99400002 -1.296 26.543299
26.544001 -0.954 -1.299 26.592884
26.518999 -0.87 -1.2970001 26.564947
26.551001 -0.787 -1.299 26.594406
11.458 -0.271 -0.58600003 11.476175
11.463 -0.235 -0.58700001 11.480426
11.464 -0.199 -0.58700001 11.480743
11.463 -0.163 -0.58700001 11.479177
11.465 -0.109 -0.58700001 11.480536
11.491 -0.072999999 -0.58899999 11.506317
11.48 -0.037 -0.588 11.495109
11.486 -0.001 -0.588 11.50104
11.422 0.035 -0.58399999 11.436973
12.307 0.093999997 -0.64499998 12.324249
0 0 0 0
0 0 0 0
11.021 0.191 -0.55599999 11.036669
11.036 0.22499999 -0.55699998 11.052339
11.127 0.26199999 -0.56400001 11.144364
13.246 0.37799999 -0.61699998 13.265749
13.231 0.419 -0.616 13.251958
13.191 0.45899999 -0.61400002 13.213257
26.079 0.98900002 -1.273 26.128777
26.114 1.114 -1.275 26.168829
26.114 1.196 -1.275 26.172449
26.136 1.279 -1.277 26.198418
26.110001 1.36 -1.275 26.176466
26.129999 1.444 -1.277 26.201006
26.127001 1.526 -1.277 26.202663
26.148001 1.651 -1.278 26.231224
26.152 1.733 -1.279 26.240547
26.159 1.816 -1.28 26.253181
26.155001 1.899 -1.28 26.25507
26.181 1.983 -1.2819999 26.28727
26.197001 2.109 -1.283 26.313055
26.219999 2.1930001 -1.285 26.342909
26.211 2.276 -1.285 26.340994
26.224001 2.3599999 -1.286 26.361366
26.23 2.4430001 -1.2869999 26.374941
26.252001 2.5699999 -1.288 26.408926
26.273001 2.6559999 -1.29 26.4384
18.610001 1.948 -0.85500002 18.731199
17.962 1.9400001 -0.91500002 18.089619
17.354 1.928 -0.87699997 17.48278
16.841 1.924 -0.84600002 16.971645
16.229 1.931 -0.80800003 16.363436
16.059999 1.962 -0.79799998 16.19907
15.913 1.994 -0.78899997 16.056841
15.838 2.0350001 -0.78500003 15.987486
15.827 2.0840001 -0.78500003 15.982903
15.782 2.154 -0.78299999 15.947549
15.783 2.2049999 -0.78299999 15.955507
15.786 2.256 -0.78399998 15.965651
15.757 2.302 -0.78200001 15.943456
