# .PCD v0.7 - Point Cloud Data file format
VERSION 0.7
FIELDS x y z intensity
SIZE 4 4 4 4
TYPE F F F F
COUNT 1 1 1 1
WIDTH 1562
HEIGHT 1
VIEWPOINT 0 0 0 1 0 0 0
POINTS 1562
DATA ascii
3.089 13.167 -1.716 13.632918
3.0480001 13.18 -1.717 13.636377
3.0120001 13.213 -1.72 13.66067
2.971 13.222 -1.72 13.6604
2.924 13.208 -1.717 13.636316
1.772 8.1309996 -1.077 8.3912497
2 9.4429998 -1.281 9.7371044
1.976 9.474 -1.285 9.7628107
1.678 8.1920004 -1.0829999 8.4319296
1.675 8.3070002 -1.101 8.545413
1.671 8.4230003 -1.118 8.6596251
1.627 8.4110003 -1.115 8.6391706
1.5319999 8.059 -1.059 8.2713957
1.494 7.9980001 -1.049 8.2036848
0 0 0 0
1.438 7.974 -1.044 8.1696053
1.398 7.9689999 -1.0420001 8.1575193
1.372 7.9660001 -1.041 8.1500444
1.347 7.974 -1.041 8.1536961
1.307 7.8860002 -1.027 8.0592785
1.258 7.7480001 -1.005 7.9135389
1.2309999 7.7329998 -1.002 7.8942165
1.201 7.7810001 -1.0089999 7.9375343
1.176 7.783 -1.008 7.9356241
1.16 7.8429999 -1.017 7.9932809
1.147 7.9229999 -1.029 8.071454
1.112 7.8540001 -1.018 7.9973865
1.09 7.8790002 -1.021 8.0193005
1.04 7.79 -1.006 7.9232402
1.011 7.7579999 -1.001 7.8873749
0.98400003 7.744 -0.99800003 7.869803
0.95700002 7.7249999 -0.995 7.8473878
0.93199998 7.724 -0.99400002 7.843267
0.92000002 7.927 -1.025 8.0457668
0.89399999 7.9260001 -1.024 8.0417213
0.86900002 7.9229999 -1.023 8.0358953
0.84399998 7.9250002 -1.023 8.0352039
0.80500001 7.8000002 -1.0039999 7.9054441
0.77899998 7.9120002 -1.02 8.0154219
0.75300002 7.901 -1.018 8.0018206
0.73000002 7.921 -1.021 8.019824
0.704 7.915 -1.02 8.0114441
0.662 8.0019999 -1.0319999 8.0953865
0.65899998 8.1140003 -1.049 8.208025
0.63700002 8.165 -1.057 8.2577381
0.61000001 8.4940004 -1.107 8.5875254
0.56 8.1669998 -1.056 8.2540064
0.537 8.2060003 -1.062 8.2918425
0.62199998 9.9060001 -1.323 10.013294
0.52499998 8.6280003 -1.127 8.7171183
0.46700001 8.1149998 -1.048 8.1957064
0.41999999 8.1949997 -1.059 8.2738085
0 0 0 0
0.377 8.3830004 -1.0880001 8.4617119
0.33500001 8.0419998 -1.036 8.1153736
0 0 0 0
0.26100001 7.7329998 -0.98799998 7.8002276
0 0 0 0
0 0 0 0
0.189 7.7880001 -0.99599999 7.8537049
0.15099999 7.7179999 -0.98500001 7.7820659
0.127 7.7220001 -0.986 7.7857313
0.103 7.7620001 -0.99199998 7.8258109
0 0 0 0
0.054000001 7.7350001 -0.98699999 7.7979045
0.029999999 7.7309999 -0.98699999 7.793807
0 0 0 0
0 0 0 0
-0.056000002 7.9520001 -1.021 8.0174732
-0.079999998 7.7620001 -0.99199998 7.825542
-0.12 9.3240004 -1.2309999 9.4056759
-0.149 9.3030005 -1.228 9.384882
-0.19499999 9.4230003 -1.2460001 9.5070229
0 0 0 0
-0.391 13.61 -1.729 13.724956
-0.43399999 13.608 -1.729 13.724265
-0.45500001 13.61 -1.729 13.726928
-0.54100001 13.61 -1.73 13.730174
-0.58399999 13.609 -1.73 13.730945
-0.62599999 13.587 -1.727 13.710615
-0.66799998 13.575 -1.726 13.700582
-0.68900001 13.574 -1.726 13.70063
-0.77399999 13.562 -1.725 13.693157
-0.81599998 13.545 -1.723 13.67851
-0.85799998 13.545 -1.723 13.681079
-0.89999998 13.53 -1.721 13.668677
-0.94400001 13.541 -1.723 13.682783
-1.006 13.52 -1.721 13.666173
-1.048 13.511 -1.72 13.660301
-1.091 13.514 -1.721 13.666759
-1.133 13.504 -1.72 13.660165
-1.176 13.503 -1.721 13.662936
-1.2180001 13.497 -1.72 13.660562
-1.28 13.471 -1.717 13.640173
-1.322 13.469 -1.7180001 13.642329
-1.363 13.445 -1.715 13.622298
-1.404 13.429 -1.7130001 13.610424
-1.446 13.425 -1.7130001 13.610875
-1.507 13.398 -1.71 13.590494
-1.548 13.382 -1.709 13.579208
-1.575 13.247 -1.6900001 13.446922
-1.518 12.297 -1.612 12.494761
-1.4809999 11.703 -1.525 11.894503
-1.38 10.531 -1.353 10.706866
-1.327 9.868 -1.3279999 10.044995
-1.353 9.8310003 -1.323 10.011469
-1.3200001 9.3620005 -1.251 9.5370045
0 0 0 0
0 0 0 0
0 0 0 0
0 0 0 0
0 0 0 0
0 0 0 0
0 0 0 0
0 0 0 0
0 0 0 0
-1.732 9.8269997 -1.331 10.066842
-1.766 9.8389997 -1.334 10.084851
-1.798 9.8400002 -1.335 10.091612
-1.827 9.8240004 -1.3329999 10.080962
-1.862 9.8380003 -1.336 10.101396
-1.906 9.8190002 -1.335 10.090978
-1.9400001 9.8290005 -1.337 10.107444
-1.973 9.8339996 -1.339 10.118953
-2.0009999 9.8120003 -1.337 10.102818
-2.033 9.8140001 -1.3380001 10.111278
-2.082 9.816 -1.34 10.123447
-2.115 9.8210001 -1.341 10.135262
-2.148 9.8219995 -1.3430001 10.143433
-2.1760001 9.802 -1.341 10.129781
-2.217 9.6969995 -1.326 10.035196
-2.2390001 9.6549997 -1.321 9.9988594
-2.256 9.658 -1.322 10.005708
-2.29 9.6680002 -1.325 10.02347
-2.3469999 9.7720003 -1.342 10.139101
-2.4159999 9.79 -1.347 10.173277
-2.4400001 9.7530003 -1.3430001 10.142892
-2.451 9.7340002 -1.34 10.126884
-2.497 9.7860003 -1.35 10.189372
-2.559 9.7720003 -1.35 10.191319
-2.5940001 9.7790003 -1.352 10.207134
-2.6229999 9.7670002 -1.352 10.203054
-2.6570001 9.7679996 -1.353 10.212936
-2.6760001 9.7810001 -1.3559999 10.230721
-2.7349999 9.7550001 -1.354 10.221231
-2.7750001 9.7790003 -1.36 10.255685
-2.799 9.7469997 -1.3559999 10.231185
-2.836 9.7589998 -1.359 10.253187
-2.882 9.7460003 -1.359 10.253649
-2.9170001 9.7589998 -1.29 10.266989
-2.95 9.757 -1.291 10.27464
-2.9820001 9.7460003 -1.364 10.282866
-3.0179999 9.7559996 -1.367 10.303229
-3.0610001 9.7370005 -1.293 10.28838
-3.1029999 9.7559996 -1.3710001 10.328978
-3.131 9.7460003 -1.2970001 10.318425
-3.1559999 9.717 -1.294 10.298294
-3.1930001 9.7259998 -1.2970001 10.318553
-3.2390001 9.7130003 -1.2970001 10.320644
-3.2720001 9.71 -1.299 10.32848
-3.3099999 9.7209997 -1.302 10.351287
-3.339 9.7060003 -1.301 10.346398
-3.3740001 9.7089996 -1.303 10.360808
-3.4100001 9.7150002 -1.306 10.378582
-3.4590001 9.7060003 -1.307 10.386499
-3.497 9.7159996 -1.3099999 10.408927
-3.5239999 9.6969995 -1.309 10.400186
-3.562 9.7069998 -1.312 10.422813
-3.596 9.7030001 -1.313 10.430886
-3.6229999 9.6820002 -1.312 10.420586
-3.6830001 9.7040005 -1.318 10.462755
-3.7130001 9.6899996 -1.318 10.460382
-3.74 9.6709995 -1.317 10.452288
-3.779 9.6800003 -1.3200001 10.475001
-3.8080001 9.6660004 -1.319 10.472449
-3.869 9.6870003 -1.325 10.514883
-3.898 9.6689997 -1.325 10.509024
-3.9319999 9.6660004 -1.326 10.519053
-3.967 9.6660004 -1.3279999 10.532437
-4.033 9.6540003 -1.33 10.54674
-4.0549998 9.6619997 -1.332 10.56274
-4.0890002 9.658 -1.334 10.572438
-4.118 9.6420002 -1.3329999 10.568963
-4.1570001 9.651 -1.337 10.592923
-4.2280002 9.6479998 -1.341 10.618765
-4.263 9.6450005 -1.342 10.630154
-4.283 9.6490002 -1.344 10.642069
-4.3189998 9.6490002 -1.346 10.65686
-4.3920002 9.6479998 -1.35 10.686256
-4.4219999 9.6330004 -1.35 10.685096
-4.4590001 9.6330004 -1.352 10.700714
-4.487 9.6149998 -1.352 10.696228
-4.5029998 9.6099997 -1.352 10.698459
-4.5770001 9.6099997 -1.357 10.730446
-4.618 9.6190004 -1.36 10.756426
-4.6539998 9.6149998 -1.362 10.768611
-4.691 9.6149998 -1.365 10.785033
-3.6900001 7.4899998 -1.082 8.4194374
-3.7249999 7.5019999 -1.086 8.4460058
-4.8189998 9.6070004 -1.372 10.83511
-4.8559999 9.6049995 -1.374 10.850099
-4.888 9.5939999 -1.375 10.854861
-4.9250002 9.592 -1.377 10.87006
-4.9899998 9.6059999 -1.383 10.912746
-5.0170002 9.585 -1.382 10.906532
-5.0599999 9.5939999 -1.386 10.934781
-5.099 9.5930004 -1.3890001 10.952387
-5.1290002 9.5769997 -1.3890001 10.952392
-5.1729999 9.5869999 -1.393 10.982302
-5.2280002 9.5799999 -1.396 11.0026
-5.2649999 9.5760002 -1.398 11.017006
-4.0089998 7.2270002 -1.069 8.3333292
0 0 0 0
-5.3740001 9.5600004 -1.404 11.056433
-5.4260001 9.5469999 -1.406 11.070841
-4.2620001 7.4640002 -1.119 8.6676474
-3.9449999 6.829 -1.011 7.9511247
-3.96 6.8049998 -1.0089999 7.9377394
-3.9879999 6.8049998 -1.011 7.9519987
-5.6409998 9.5369997 -1.42 11.171018
-5.6880002 9.5480003 -1.425 11.204833
-5.724 9.54 -1.427 11.216599
-5.7620001 9.5349998 -1.429 11.232048
-5.8099999 9.5459995 -1.434 11.266702
-5.8390002 9.526 -1.434 11.264767
-5.9050002 9.5340004 -1.4400001 11.306626
-5.934 9.5129995 -1.4400001 11.304119
-5.9720001 9.5080004 -1.442 11.320168
-6.0139999 9.5080004 -1.4450001 11.342764
-6.092 9.4980001 -1.45 11.376597
-6.1370001 9.5019999 -1.454 11.4046
-6.1479998 9.4870005 -1.4529999 11.397907
-6.191 9.4879999 -1.457 11.422498
-6.2360001 9.4919996 -1.461 11.450776
-6.3080001 9.4700003 -1.464 11.472361
-6.362 9.4860001 -1.47 11.516082
-6.3790002 9.4799995 -1.471 11.520672
-6.4239998 9.4829998 -1.475 11.548622
-6.5 9.4650002 -1.479 11.576859
-6.5419998 9.4619999 -1.482 11.598428
-6.5869999 9.4639997 -1.4859999 11.626007
-6.6199999 9.448 -1.487 11.631865
-6.6420002 9.448 -1.489 11.644654
-6.7340002 9.4510002 -1.497 11.70082
-6.777 9.4490004 -1.5 11.724391
-6.8280001 9.4560003 -1.506 11.760339
-6.8559999 9.4329996 -1.505 11.758029
-6.902 9.434 -1.5089999 11.786223
-6.9679999 9.4300003 -1.515 11.82257
-7.006 9.4189997 -1.517 11.836506
-7.0570002 9.4259996 -1.522 11.872961
-7.0960002 9.4160004 -1.524 11.888517
-7.1360002 9.408 -1.527 11.906498
-7.2129998 9.4160004 -1.534 11.959999
-7.256 9.4110003 -1.538 11.982567
-7.3070002 9.4160004 -1.543 12.018076
-7.3369999 9.3929996 -1.543 12.018354
-7.3860002 9.3950005 -1.5470001 12.050404
-7.4349999 9.3970003 -1.552 12.082696
-7.5089998 9.3979998 -1.559 12.130044
-7.5560002 9.3959999 -1.563 12.158163
-7.598 9.3879995 -1.566 12.178526
-7.6370001 9.3760004 -1.568 12.193924
-7.6939998 9.3859997 -1.575 12.23827
-7.7680001 9.3839998 -1.581 12.28417
-7.8210001 9.3889999 -1.587 12.322335
-7.8509998 9.3640003 -1.587 12.322389
-7.902 9.3649998 -1.592 12.356347
-7.954 9.3669996 -1.597 12.391821
-7.993 9.3529997 -1.599 12.40659
-8.0699997 9.3540001 -1.6059999 12.457987
-8.1129999 9.3439999 -1.609 12.478782
-8.1560001 9.3339996 -1.613 12.499826
-8.2110004 9.3369999 -1.618 12.538661
-8.2530003 9.3260002 -1.6210001 12.558421
-8.342 9.3369999 -1.631 12.626507
-8.3859997 9.3269997 -1.6339999 12.64863
-8.434 9.3210001 -1.638 12.67661
-8.4910002 9.3249998 -1.6440001 12.718311
-8.5839996 9.309 -1.652 12.769951
-8.632 9.3030005 -1.656 12.798421
-8.6590004 9.302 -1.658 12.816179
-8.7150002 9.3039999 -1.664 12.856303
-8.7650003 9.2980003 -1.668 12.886437
-8.8559999 9.2770004 -1.675 12.934338
-8.9280005 9.2930002 -1.684 12.996342
-8.9420004 9.2790003 -1.684 12.995964
-9.0010004 9.2810001 -1.6900001 13.038829
-9.0170002 9.2399998 -1.688 13.020493
-9.1289997 9.2379999 -1.699 13.098316
-9.1999998 9.2510004 -1.7079999 13.158202
-9.2379999 9.2299995 -1.709 13.170202
-9.2419996 9.2060003 -1.707 13.155944
-9.3780003 9.224 -1.723 13.266417
-9.3669996 9.1560001 -1.715 13.210384
-9.4650002 9.1940002 -1.729 13.308092
-9.526 9.2220001 -1.679 13.364469
-9.5860004 9.2220001 -1.6849999 13.408054
-9.6669998 9.2130003 -1.692 13.4608
-9.7379999 9.2220001 -1.7 13.519021
-9.7849998 9.2089996 -1.704 13.544575
-9.8339996 9.1969995 -1.7079999 13.572385
-9.901 9.1429996 -1.71 13.584857
-9.868 9.085 -1.701 13.520653
-9.967 9.118 -1.714 13.616783
-10.01 9.1000004 -1.717 13.636649
-10.042 9.0710001 -1.717 13.640854
-10.135 9.0410004 -1.724 13.690512
-10.127 8.9759998 -1.717 13.64085
-10.173 8.9890003 -1.724 13.684452
-10.23 8.9820004 -1.729 13.722925
-10.264 8.8979998 -1.725 13.693054
-10.29 8.8640003 -1.724 13.690391
-10.321 8.835 -1.725 13.695105
-10.471 8.9359999 -1.751 13.876596
-9.9189997 8.3839998 -1.699 13.098268
-10.357 8.6700001 -1.714 13.615217
-10.504 8.7370005 -1.7359999 13.772541
-9.9729996 8.2700005 -1.694 13.066112
-10.418 8.5279999 -1.7079999 13.571248
-10.336 8.4060001 -1.688 13.429188
-9.9989996 8.1079998 -1.682 12.982634
-9.9870005 8.0469999 -1.675 12.93445
-10.546 8.4130001 -1.712 13.598809
-10.459 8.29 -1.691 13.452667
-10.07 7.9330001 -1.674 12.92825
-10.603 8.2700005 -1.705 13.554465
-10.546 8.1719999 -1.691 13.448389
-10.156 7.8460002 -1.676 12.942682
0 0 0 0
-10.72 8.1470003 -1.7079999 13.572372
-10.186 7.6919999 -1.666 12.872334
-10.224 7.671 -1.669 12.890306
-10.694 7.9419999 -1.687 13.42695
-10.924 8.0609999 -1.724 13.685236
-6.1389999 4.4809999 -0.96700001 7.6617079
-6.3140001 4.5799999 -0.99699998 7.8636508
-10.821 7.802 -1.6900001 13.446982
-6.342 4.5539999 -0.99900001 7.8713326
-6.3649998 4.54 -1 7.8819299
-10.418 7.3410001 -1.663 12.852649
-10.437 7.3299999 -1.665 12.862041
-10.873 7.5570002 -1.676 13.346886
-10.526 7.2449999 -1.668 12.886773
-6.6160002 4.5190001 -1.03 8.0779772
-6.6789999 4.5320001 -1.039 8.1380329
-11.098 7.5089998 -1.699 13.506934
-6.7319999 4.506 -1.043 8.1677237
-11.082 7.3720002 -1.686 13.416396
-11.071 7.3140001 -1.6799999 13.374754
-6.8829999 4.4990001 -1.062 8.2912321
-6.9629998 4.5209999 -1.074 8.3711576
-6.9970002 4.5120001 -1.0779999 8.3951321
-7 4.4829998 -1.076 8.3818293
-7.1279998 4.5180001 -1.095 8.5099783
-7.112 4.4759998 -1.09 8.4736786
-11.277 7.0250001 -1.683 13.392305
0 0 0 0
-7.2490001 4.4679999 -1.107 8.5869942
0 0 0 0
-7.3649998 4.461 -1.122 8.6834679
-7.3930001 4.4460001 -1.124 8.6998129
0 0 0 0
-7.5019999 4.448 -1.1390001 8.7955685
-7.5279999 4.4310002 -1.141 8.8094511
-10.862 6.3270001 -1.638 12.676633
0 0 0 0
-10.989 6.309 -1.653 12.778655
-7.7680001 4.427 -1.1720001 9.0174131
-10.947 6.171 -1.637 12.672719
-7.9200001 4.4320002 -1.193 9.1538124
0 0 0 0
-11.048 6.0910001 -1.645 12.722603
-11.072 6.0139999 -1.642 12.706437
-8.1409998 4.3899999 -1.219 9.3291979
0 0 0 0
-11.164 5.9510002 -1.65 12.758204
-11.229 5.8959999 -1.654 12.790191
-8.3950005 4.375 -1.253 9.5491714
0 0 0 0
-11.249 5.7940001 -1.65 12.760601
-8.5419998 4.3670001 -1.272 9.6775217
-11.299 5.73 -1.652 12.776127
0 0 0 0
-11.362 5.6279998 -1.654 12.786913
-8.8149996 4.3340001 -1.307 9.9093914
-11.482 5.6199999 -1.669 12.892102
-11.487 5.533 -1.664 12.858233
-9.0600004 4.3319998 -1.341 10.13154
0 0 0 0
-9.1829996 4.3210001 -1.357 10.23914
-9.2840004 4.3169999 -1.2970001 10.320435
-9.3079996 4.2930002 -1.299 10.332285
-11.617 5.3060002 -1.6670001 12.879721
-9.427 4.276 -1.314 10.434515
-11.672 5.243 -1.671 12.904141
-11.729 5.2020001 -1.676 12.939831
-9.6969995 4.2690001 -1.349 10.680635
-12.177 5.3299999 -1.684 13.39866
-9.823 4.2509999 -1.365 10.790068
-12.219 5.2579999 -1.6849999 13.408569
-9.9809999 4.2449999 -1.386 10.934413
-7.6609998 3.224 -1.076 8.3811016
-7.631 3.1689999 -1.068 8.3315868
-7.6440001 3.1470001 -1.069 8.3352928
-7.6430001 3.118 -1.067 8.3232126
-7.4569998 3.0139999 -1.035 8.1093941
-7.6350002 3.059 -1.062 8.2932835
-7.585 2.997 -1.052 8.2231951
-7.5890002 2.971 -1.051 8.2173214
-7.5929999 2.9449999 -1.05 8.2115269
-7.5780001 2.9119999 -1.046 8.1853495
-7.5780001 2.885 -1.045 8.1756554
-7.5650001 2.852 -1.041 8.1514912
-7.5409999 2.803 -1.035 8.1113939
-7.5430002 2.776 -1.034 8.103837
-7.5500002 2.7520001 -1.033 8.1020422
-7.5339999 2.7190001 -1.029 8.0754538
-7.5409999 2.6949999 -1.029 8.0739422
-7.527 2.6630001 -1.026 8.0498428
-7.5430002 2.6289999 -1.026 8.0536432
-7.5190001 2.5940001 -1.021 8.0191422
-7.513 2.566 -1.0190001 8.0042419
-7.5190001 2.5409999 -1.018 8.0017729
-7.5170002 2.5150001 -1.017 7.9915462
-7.5229998 2.477 -1.016 7.9851933
-7.5050001 2.4449999 -1.012 7.9578385
-7.5110002 2.421 -1.011 7.9560347
-7.5159998 2.3970001 -1.011 7.9534888
-7.5180001 2.345 -1.0089999 7.9396114
-7.5159998 2.332 -1.008 7.9337597
-7.5100002 2.3039999 -1.006 7.919631
-7.5120001 2.2780001 -1.005 7.9138775
-7.5209999 2.2550001 -1.005 7.9158382
-7.5370002 2.2090001 -1.006 7.9182124
-7.5419998 2.197 -1.006 7.9196339
-7.5450001 2.1730001 -1.005 7.9157424
-7.539 2.145 -1.003 7.9021235
-7.5440001 2.096 -1.002 7.8936152
-7.5599999 2.0739999 -1.003 7.9032326
-7.5650001 2.05 -1.003 7.9017549
-7.5869999 2.043 -1.006 7.9213924
-7.586 2.0179999 -1.005 7.9138956
-7.6199999 1.975 -1.008 7.9360623
-7.3790002 1.887 -0.96899998 7.6778493
-7.5900002 1.9170001 -1.002 7.892211
-7.6659999 1.898 -1.012 7.9620414
-7.7020001 1.881 -1.017 7.9933257
-7.6950002 1.854 -1.015 7.9800105
-7.7620001 1.844 -1.025 8.0436068
-7.697 1.803 -1.013 7.9699926
-7.7210002 1.783 -1.016 7.9890671
-7.7779999 1.758 -1.024 8.0396776
0 0 0 0
-7.743 1.699 -1.017 7.9921799
-7.9530001 1.719 -1.049 8.2039976
-8.0220003 1.7079999 -1.059 8.2698994
-8.1059999 1.7 -1.071 8.3513041
-8.2480001 1.6900001 -1.092 8.4898806
-8.3400002 1.681 -1.1059999 8.5793123
-8.4090004 1.668 -1.1160001 8.6451702
-8.5 1.659 -1.1289999 8.7336664
-8.6099997 1.652 -1.145 8.841506
-8.6890001 1.6390001 -1.1569999 8.9176054
-8.9219999 1.641 -1.192 9.1496353
-9.007 1.627 -1.205 9.2317495
-9.132 1.6210001 -1.223 9.3550406
-9.2659998 1.615 -1.243 9.4874668
-9.5010004 1.61 -1.279 9.7209549
-9.6490002 1.604 -1.301 9.8675537
-9.802 1.599 -1.324 10.01943
-9.9449997 1.59 -1.345 10.160716
-10.114 1.5549999 -1.2970001 10.31471
-10.187 1.549 -1.307 10.386656
-10.683 1.589 -1.38 10.888333
-15.255 2.1919999 -1.983 15.538732
-15.367 2.1589999 -1.999 15.646149
-15.382 2.112 -2 15.654599
-15.394 2.0639999 -2.0009999 15.660119
-15.569 2.013 -2.0239999 15.828535
-15.742 1.9859999 -2.0480001 15.998407
-15.788 1.941 -2.0539999 16.038933
-15.758 1.887 -2.049 16.002304
-15.717 1.832 -2.0420001 15.954626
-13.761 1.557 -1.762 13.960444
-15.687 1.704 -2.036 15.910088
-14.041 1.478 -1.8 14.232856
-14.045 1.434 -1.8 14.232301
-13.628 1.347 -1.74 13.804506
-13.583 1.299 -1.733 13.754584
-13.626 1.239 -1.739 13.792286
-13.697 1.202 -1.748 13.860308
-13.707 1.159 -1.749 13.866655
-13.888 1.131 -1.774 14.046451
-15.692 1.232 -2.03 15.870652
-15.678 1.156 -2.027 15.850702
-15.685 1.107 -2.0280001 15.854257
-15.667 1.057 -2.0250001 15.832648
-15.678 1.008 -2.026 15.840468
-15.673 0.958 -2.0250001 15.832288
-15.65 0.88300002 -2.0209999 15.804639
-15.657 0.83399999 -2.0209999 15.808909
-15.641 0.78399998 -2.0190001 15.790246
-15.63 0.73400003 -2.017 15.77669
-15.628 0.63499999 -2.016 15.770285
-15.624 0.58600003 -2.0150001 15.764295
-15.635 0.56199998 -2.017 15.774579
-15.619 0.51200002 -2.0139999 15.756634
-15.614 0.463 -2.013 15.750033
-15.609 0.36500001 -2.0120001 15.742372
-15.612 0.31600001 -2.0120001 15.744287
-15.619 0.26699999 -2.013 15.750448
-15.606 0.242 -2.0109999 15.736897
-15.591 0.14399999 -2.0090001 15.720563
-15.581 0.094999999 -2.0079999 15.710145
-15.578 0.046 -2.007 15.706821
-16.545 0.026000001 -2.0320001 16.669334
-16.545 -0.052000001 -2.0320001 16.669395
-16.531 -0.104 -2.03 16.6555
-16.518999 -0.156 -2.029 16.643873
-16.507999 -0.208 -2.027 16.633282
-16.507 -0.31099999 -2.027 16.633896
-16.488001 -0.33700001 -2.0250001 16.615305
-16.485001 -0.389 -2.0250001 16.613464
-16.486 -0.44 -2.0250001 16.615728
-16.461 -0.491 -2.0220001 16.59199
-16.424999 -0.59399998 -2.017 16.559038
-16.421 -0.61900002 -2.017 16.555986
-16.423 -0.671 -2.017 16.559996
-16.406 -0.722 -2.016 16.545162
-16.386 -0.773 -2.013 16.527271
-16.379 -0.87599999 -2.013 16.525471
-16.360001 -0.926 -2.0109999 16.509127
-16.334999 -0.94999999 -2.0079999 16.48535
-16.34 -1.002 -2.0090001 16.493504
-16.332001 -1.105 -2.0079999 16.492039
-16.341999 -1.1569999 -2.01 16.505747
-16.322001 -1.207 -2.0079999 16.489288
-16.327999 -1.233 -2.0090001 16.497271
-16.322001 -1.336 -2.0090001 16.499353
-16.114 -1.37 -1.982 16.293135
-16.106001 -1.42 -1.9809999 16.289383
-16.121 -1.472 -1.984 16.309191
-16.097 -1.521 -1.9809999 16.289604
-16.104 -1.573 -1.983 16.301701
-16.103001 -1.624 -1.983 16.305714
-16.091999 -1.674 -1.983 16.299908
-16.084 -1.75 -1.983 16.299994
-16.087999 -1.801 -1.984 16.309616
-16.082001 -1.852 -1.984 16.30941
-16.08 -1.903 -1.985 16.313431
-16.068001 -1.9529999 -1.984 16.307394
-16.07 -2.0039999 -1.985 16.315672
-16.07 -2.0810001 -1.9859999 16.32543
-16.069 -2.132 -1.987 16.331146
-16.065001 -2.1830001 -1.987 16.33395
-16.038 -2.2309999 -1.985 16.313644
-16.016001 -2.3050001 -1.983 16.302073
0 0 0 0
0 0 0 0
0 0 0 0
0 0 0 0
0 0 0 0
0 0 0 0
0 0 0 0
0 0 0 0
0 0 0 0
0 0 0 0
0 0 0 0
0 0 0 0
0 0 0 0
0 0 0 0
0 0 0 0
0 0 0 0
0 0 0 0
0 0 0 0
0 0 0 0
0 0 0 0
0 0 0 0
0 0 0 0
0 0 0 0
0 0 0 0
-11.13 -2.608 -1.42 11.51933
-11.15 -2.6500001 -1.424 11.548713
-10.695 -2.5780001 -1.359 11.084944
0 0 0 0
0 0 0 0
0 0 0 0
0 0 0 0
0 0 0 0
0 0 0 0
-10.306 -2.743 -1.311 10.745064
0 0 0 0
-10.272 -2.8210001 -1.3099999 10.732574
-10.243 -2.848 -1.307 10.711601
-10.216 -2.875 -1.304 10.692646
-10.181 -2.934 -1.302 10.675033
-10.123 -2.9349999 -1.294 10.61903
-10.135 -2.973 -1.2970001 10.64139
-10.104 -2.9979999 -1.294 10.618534
-10.091 -3.029 -1.293 10.614846
0 0 0 0
-9.9469995 -3.089 -1.276 10.493469
-9.9720001 -3.1140001 -1.281 10.525148
-9.9469995 -3.1400001 -1.278 10.508839
-9.7819996 -3.122 -1.255 10.344536
-7.4419999 -2.4230001 -0.94499999 7.883357
-7.303 -2.3900001 -0.92400002 7.7394886
-7.1360002 -2.385 -0.90100002 7.577765
-7.0139999 -2.368 -0.88300002 7.4554214
0 0 0 0
-6.7880001 -2.3329999 -0.90200001 7.2341852
-6.724 -2.335 -0.89300001 7.1736913
-6.6440001 -2.3299999 -0.88099998 7.0956182
-6.5749998 -2.3299999 -0.87099999 7.0298052
0 0 0 0
0 0 0 0
-6.3649998 -2.335 -0.84100002 6.8317442
-6.3600001 -2.3559999 -0.84100002 6.8342972
-6.3759999 -2.385 -0.84500003 6.8597102
0 0 0 0
0 0 0 0
-6.3870001 -2.4690001 -0.85100001 6.9002852
0 0 0 0
0 0 0 0
0 0 0 0
0 0 0 0
0 0 0 0
0 0 0 0
0 0 0 0
0 0 0 0
0 0 0 0
0 0 0 0
-5.3559999 -2.3099999 -0.69599998 5.8742871
0 0 0 0
0 0 0 0
0 0 0 0
0 0 0 0
0 0 0 0
0 0 0 0
0 0 0 0
0 0 0 0
0 0 0 0
-6.96 -3.293 -0.92699999 7.7553067
-6.9640002 -3.322 -0.92900002 7.7714877
-6.9499998 -3.369 -0.93000001 7.7793031
-6.9549999 -3.385 -0.93199998 7.7909484
-6.96 -3.415 -0.93400002 7.8087249
-6.9549999 -3.4400001 -0.935 7.8153596
-6.9310002 -3.4820001 -0.935 7.8126383
0 0 0 0
0 0 0 0
0 0 0 0
0 0 0 0
0 0 0 0
0 0 0 0
0 0 0 0
0 0 0 0
0 0 0 0
0 0 0 0
0 0 0 0
0 0 0 0
0 0 0 0
0 0 0 0
0 0 0 0
0 0 0 0
0 0 0 0
0 0 0 0
0 0 0 0
0 0 0 0
0 0 0 0
0 0 0 0
-6.1500001 -3.7119999 -0.903 7.2399487
-6.1129999 -3.7420001 -0.89999998 7.2236648
-6.0780001 -3.747 -0.89600003 7.1961732
-6.0300002 -3.7309999 -0.889 7.1464386
0 0 0 0
-5.914 -3.711 -0.87199998 7.0361423
0 0 0 0
0 0 0 0
0 0 0 0
0 0 0 0
0 0 0 0
0 0 0 0
0 0 0 0
0 0 0 0
0 0 0 0
0 0 0 0
0 0 0 0
0 0 0 0
0 0 0 0
0 0 0 0
0 0 0 0
0 0 0 0
0 0 0 0
-4.973 -3.5899999 -0.74199998 6.1781383
-4.98 -3.631 -0.74699998 6.2082663
-4.973 -3.6500001 -0.74699998 6.2137942
-5.1020002 -3.7690001 -0.77399999 6.3902144
0 0 0 0
-7.3930001 -5.5479999 -1.11 9.3096104
-7.3390002 -5.5440001 -1.104 9.2636757
-7.29 -5.526 -1.097 9.2132616
-7.2490001 -5.5310001 -1.0930001 9.1833878
-7.1849999 -5.5170002 -1.084 9.1234083
-7.1479998 -5.5250001 -1.081 9.0987959
-7.046 -5.5180001 -1.069 9.0131683
-7.0110002 -5.5079999 -1.064 8.9791021
-6.967 -5.5089998 -1.059 8.9448118
-6.8959999 -5.5180001 -1.092 8.8991919
-6.8569999 -5.5219998 -1.0880001 8.8710022
-6.8119998 -5.5209999 -1.0829999 8.8350248
-6.7740002 -5.5079999 -1.077 8.7968788
-6.6719999 -5.4949999 -1.064 8.7087717
-6.6259999 -5.4920001 -1.059 8.6710682
-6.5830002 -5.4910002 -1.054 8.6370068
-6.5549998 -5.5029998 -1.052 8.6230927
-6.4699998 -5.4840002 -1.041 8.5451059
-6.4299998 -5.4850001 -1.036 8.5148935
-6.3759999 -5.4720001 -1.029 8.4649277
-6.3390002 -5.4759998 -1.025 8.4392014
-6.3010001 -5.4770002 -1.021 8.410861
-6.2449999 -5.4629998 -1.0140001 8.3589821
-6.1900001 -5.4660001 -1.008 8.3192148
-6.1370001 -5.454 -1.001 8.2710876
-6.1009998 -5.4559999 -0.99699998 8.2452497
-6.066 -5.4590001 -0.99400002 8.221014
-6.0240002 -5.4549999 -0.98900002 8.1868019
-5.9879999 -5.4569998 -0.98500001 8.1612015
-5.9239998 -5.4499998 -0.97799999 8.1088076
-5.881 -5.4439998 -0.97299999 8.0727959
-5.8470001 -5.447 -0.96899998 8.0496073
-5.7919998 -5.4299998 -0.96200001 7.9973497
-5.756 -5.4299998 -0.958 7.9708343
-5.6950002 -5.4229999 -0.95099998 7.9212594
-5.6420002 -5.4060001 -0.94300002 7.8705945
-5.6230001 -5.421 -0.94300002 7.8673134
-5.579 -5.4130001 -0.93699998 7.8296728
-5.5560002 -5.4250002 -0.93599999 7.8214998
-5.4829998 -5.4029999 -0.926 7.7532682
-5.4530001 -5.408 -0.92400002 7.7353377
-5.4180002 -5.4070001 -0.92000002 7.7095251
-5.3699999 -5.3930001 -0.91399997 7.6652946
-5.3390002 -5.3959999 -0.91100001 7.6453686
-5.2880001 -5.3940001 -0.90499997 7.607707
-5.257 -5.3959999 -0.90200001 7.5872569
-5.2249999 -5.3969998 -0.89899999 7.5654764
-5.191 -5.3959999 -0.89600003 7.5409622
-5.1290002 -5.3990002 -0.88999999 7.4998631
-5.0890002 -5.3899999 -0.88499999 7.4654703
-5.0679998 -5.3850002 -0.88200003 7.4471989
-4.994 -5.3460002 -0.92299998 7.3737154
-4.9390001 -5.3379998 -0.91600001 7.3298717
-4.9060001 -5.336 -0.91299999 7.30584
-4.8829999 -5.3439999 -0.91100001 7.2960224
-4.8460002 -5.3369999 -0.90700001 7.2656679
-4.8200002 -5.342 -0.90499997 7.2517853
-4.7859998 -5.3379998 -0.90100002 7.2257757
-4.73 -5.3270001 -0.89399999 7.1797681
-4.6950002 -5.3210001 -0.88999999 7.1517944
-4.6719999 -5.329 -0.88800001 7.1424341
-4.632 -5.316 -0.88300002 7.1059813
-4.6030002 -5.3179998 -0.88 7.0882392
-4.5469999 -5.303 -0.87300003 7.0398259
-4.5250001 -5.3119998 -0.87099999 7.0321841
-4.4920001 -5.3060002 -0.86699998 7.0059543
-4.4569998 -5.2989998 -0.86299998 6.9777513
-4.4380002 -5.3099999 -0.86299998 6.9740028
-4.3790002 -5.29 -0.85399997 6.9201922
-4.3530002 -5.2930002 -0.852 6.9058208
-4.322 -5.2880001 -0.84899998 6.8821096
-4.2919998 -5.2870002 -0.84600002 6.8621683
-4.2709999 -5.2940001 -0.84399998 6.8542113
-4.2140002 -5.2909999 -0.83899999 6.8158932
-4.1929998 -5.283 -0.83600003 6.7963395
-4.1609998 -5.276 -0.83200002 6.7706952
-4.1370001 -5.2789998 -0.82999998 6.75807
-4.073 -5.2659998 -0.82200003 6.7078886
-4.052 -5.2729998 -0.82099998 6.7005429
-4.0469999 -5.2839999 -0.82200003 6.7063065
-4.0149999 -5.276 -0.81800002 6.680234
-3.997 -5.2870002 -0.81800002 6.6781363
-3.9389999 -5.2789998 -0.81099999 6.6363606
-3.927 -5.2979999 -0.81300002 6.6446295
-3.901 -5.2969999 -0.81 6.62813
-3.8759999 -5.2810001 -0.80599999 6.6001496
-3.8629999 -5.2979999 -0.80699998 6.6062713
-3.8099999 -5.2950001 -0.80199999 6.5723915
-3.776 -5.283 -0.79699999 6.5424366
-3.757 -5.2919998 -0.79699999 6.5387707
-3.737 -5.2810001 -0.79299998 6.5178967
-3.694 -5.29 -0.79100001 6.5004168
-3.6600001 -5.277 -0.78600001 6.4699402
-3.6340001 -5.276 -0.78399998 6.4542069
-3.612 -5.2789998 -0.78200001 6.4440598
-3.5840001 -5.2740002 -0.77899998 6.4239378
-3.543 -5.2659998 -0.77499998 6.3940773
-3.5220001 -5.2709999 -0.77399999 6.3864698
-3.49 -5.2589998 -0.76899999 6.3583446
-3.474 -5.2719998 -0.76999998 6.3604679
-3.447 -5.2659998 -0.76700002 6.340414
-3.4030001 -5.2519999 -0.76099998 6.3042073
-3.3800001 -5.2529998 -0.759 6.2924151
-3.3559999 -5.2519999 -0.75700003 6.2784777
-3.3269999 -5.244 -0.75400001 6.2559552
-3.303 -5.243 -0.75199997 6.2421436
-3.2820001 -5.2449999 -0.75 6.2324991
-3.244 -5.2399998 -0.74699998 6.2079902
-3.2249999 -5.2449999 -0.74599999 6.2021904
-3.2019999 -5.2449999 -0.74400002 6.190021
-3.175 -5.2389998 -0.741 6.1706419
-3.148 -5.2319999 -0.73799998 6.1504774
-3.109 -5.223 -0.73400003 6.122448
-3.092 -5.2309999 -0.73299998 6.1205482
-3.073 -5.2350001 -0.73199999 6.1142769
-3.0420001 -5.2210002 -0.72799999 6.0862627
-3.0220001 -5.224 -0.727 6.0787492
-3.0050001 -5.2329998 -0.727 6.0780625
-2.9630001 -5.217 -0.72100002 6.042872
-2.9460001 -5.2259998 -0.72100002 6.0423365
-2.9159999 -5.211 -0.71700001 6.0142884
-2.8970001 -5.2150002 -0.71600002 6.0084519
-2.8800001 -5.2220001 -0.71600002 6.0063586
-2.8499999 -5.2069998 -0.71200001 5.9784851
-2.822 -5.2140002 -0.70999998 5.9710622
-2.7909999 -5.1960001 -0.70599997 5.9402471
-2.779 -5.2140002 -0.70700002 5.9505029
-2.7550001 -5.2069998 -0.70499998 5.93295
-2.7179999 -5.197 -0.70099998 5.9065838
0 0 0 0
-2.6760001 -5.1960001 -0.69800001 5.8861361
0 0 0 0
0 0 0 0
0 0 0 0
0 0 0 0
0 0 0 0
0 0 0 0
0 0 0 0
0 0 0 0
0 0 0 0
0 0 0 0
0 0 0 0
0 0 0 0
0 0 0 0
0 0 0 0
0 0 0 0
0 0 0 0
0 0 0 0
0 0 0 0
0 0 0 0
0 0 0 0
0 0 0 0
0 0 0 0
0 0 0 0
0 0 0 0
0 0 0 0
0 0 0 0
0 0 0 0
0 0 0 0
0 0 0 0
0 0 0 0
0 0 0 0
0 0 0 0
0 0 0 0
0 0 0 0
0 0 0 0
0 0 0 0
0 0 0 0
0 0 0 0
0 0 0 0
0 0 0 0
0 0 0 0
0 0 0 0
0 0 0 0
0 0 0 0
0 0 0 0
0 0 0 0
0 0 0 0
0 0 0 0
0 0 0 0
0 0 0 0
0 0 0 0
0 0 0 0
0 0 0 0
0 0 0 0
0 0 0 0
0 0 0 0
0 0 0 0
0 0 0 0
0 0 0 0
0 0 0 0
0 0 0 0
0 0 0 0
0 0 0 0
0 0 0 0
0 0 0 0
0 0 0 0
0 0 0 0
0 0 0 0
0 0 0 0
0 0 0 0
0 0 0 0
0 0 0 0
0 0 0 0
0 0 0 0
0 0 0 0
0 0 0 0
0 0 0 0
0 0 0 0
0 0 0 0
0 0 0 0
0 0 0 0
0 0 0 0
0 0 0 0
0 0 0 0
0 0 0 0
0 0 0 0
0 0 0 0
0 0 0 0
0 0 0 0
0 0 0 0
0 0 0 0
0 0 0 0
0 0 0 0
0 0 0 0
0 0 0 0
0 0 0 0
0 0 0 0
0 0 0 0
0 0 0 0
0 0 0 0
0 0 0 0
0 0 0 0
0 0 0 0
0 0 0 0
0 0 0 0
0 0 0 0
0 0 0 0
0 0 0 0
0 0 0 0
0 0 0 0
0 0 0 0
0 0 0 0
0 0 0 0
0 0 0 0
0 0 0 0
0 0 0 0
-0.42500001 -6.2849998 -0.76700002 6.3458757
-0.40700001 -6.3099999 -0.77100003 6.3699446
-0.37400001 -6.4169998 -0.787 6.4758887
-0.361 -6.5450001 -0.80699998 6.6044374
-0.34799999 -6.6900001 -0.829 6.750144
-0.33500001 -6.8390002 -0.85100001 6.8998804
-0.317 -7.131 -0.89600003 7.1940579
-0.30199999 -7.296 -0.921 7.3600993
-0.27900001 -7.4910002 -0.89700001 7.5496712
-0.27200001 -7.651 -0.92000002 7.7109132
-0.25400001 -7.842 -0.94800001 7.9031754
-0.233 -8.0109997 -0.97299999 8.0732355
-0.214 -8.2650003 -1.01 8.3292341
-0.163 -8.3059998 -1.015 8.3693743
-0.13600001 -8.302 -1.015 8.3649225
-0.123 -8.243 -1.006 8.3050718
-0.098999999 -8.54 -1.049 8.6047554
-0.071999997 -8.9650002 -1.071 9.0290337
-0.045000002 -9.2390003 -1.11 9.3055496
0.012 -9.7849998 -1.187 9.856741
0.043000001 -9.849 -1.196 9.9214439
0.061999999 -11.134 -1.378 11.219121
0.133 -11.165 -1.382 11.250993
0.167 -11.149 -1.38 11.235323
0.20299999 -11.154 -1.381 11.241
0.287 -13.268 -1.591 13.366131
0.31 -13.36 -1.603 13.459394
0.35299999 -13.379 -1.6059999 13.479669
0.43799999 -13.426 -1.613 13.529637
0.48100001 -13.451 -1.6160001 13.556261
0.52399999 -13.451 -1.6160001 13.557856
0.54500002 -13.45 -1.6160001 13.557691
0.63099998 -13.472 -1.62 13.583716
0.67299998 -13.464 -1.619 13.577679
0.71499997 -13.472 -1.62 13.587877
0.75800002 -13.479 -1.622 13.597385
0.80000001 -13.473 -1.6210001 13.593725
0.86500001 -13.485 -1.623 13.609834
0.90799999 -13.496 -1.625 13.623771
0.94999999 -13.481 -1.623 13.611539
0.99299997 -13.492 -1.625 13.625738
1.0369999 -13.501 -1.627 13.638164
1.101 -13.508 -1.6289999 13.650345
1.143 -13.492 -1.627 13.637728
1.186 -13.504 -1.6289999 13.653506
1.229 -13.506 -1.63 13.659406
1.271 -13.493 -1.6289999 13.65028
1.316 -13.514 -1.632 13.675653
1.381 -13.52 -1.6339999 13.688226
1.423 -13.515 -1.6339999 13.68759
1.467 -13.523 -1.635 13.700249
1.5089999 -13.518 -1.635 13.699877
1.552 -13.513 -1.635 13.699747
1.617 -13.521 -1.637 13.715389
1.661 -13.528 -1.6390001 13.727783
1.7029999 -13.519 -1.638 13.723944
1.748 -13.527 -1.64 13.737717
1.793 -13.545 -1.6440001 13.761708
1.837 -13.545 -1.6440001 13.76751
1.902 -13.55 -1.646 13.781488
1.946 -13.552 -1.647 13.789715
1.989 -13.546 -1.647 13.789954
2.0309999 -13.54 -1.647 13.790184
2.076 -13.547 -1.649 13.803991
2.141 -13.543 -1.65 13.810114
2.1819999 -13.53 -1.649 13.803667
2.2219999 -13.509 -1.647 13.789234
2.263 -13.491 -1.646 13.778155
1.77 -10.171 -1.263 10.400831
0 0 0 0
1.742 -9.7259998 -1.245 9.9588985
1.709 -9.3739996 -1.194 9.6030302
1.642 -8.7080002 -1.096 8.928978
0 0 0 0
0 0 0 0
1.618 -8.1000004 -1.008 8.3212986
1.608 -7.9200001 -0.98199999 8.1410313
0 0 0 0
0 0 0 0
0 0 0 0
0 0 0 0
0 0 0 0
0 0 0 0
0 0 0 0
0 0 0 0
0 0 0 0
1.717 -7.1700001 -0.93199998 7.4313941
1.734 -7.1890001 -0.935 7.4540396
1.767 -7.2280002 -0.94199997 7.5002427
0 0 0 0
1.8279999 -7.184 -0.93800002 7.4720335
1.8329999 -7.1069999 -0.92699999 7.3978825
1.84 -7.0910001 -0.92500001 7.3840036
0 0 0 0
0 0 0 0
0 0 0 0
0 0 0 0
0 0 0 0
0 0 0 0
0 0 0 0
1.631 -5.6399999 -0.70200002 5.9129152
0 0 0 0
0 0 0 0
0 0 0 0
0 0 0 0
0 0 0 0
0 0 0 0
0 0 0 0
0 0 0 0
0 0 0 0
0 0 0 0
0 0 0 0
0 0 0 0
0 0 0 0
0 0 0 0
0 0 0 0
0 0 0 0
0 0 0 0
0 0 0 0
0 0 0 0
0 0 0 0
0 0 0 0
0 0 0 0
0 0 0 0
0 0 0 0
0 0 0 0
0 0 0 0
0 0 0 0
0 0 0 0
0 0 0 0
0 0 0 0
0 0 0 0
0 0 0 0
0 0 0 0
0 0 0 0
0 0 0 0
0 0 0 0
5.382 -12.289 -1.61 13.512126
5.4060001 -12.239 -1.605 13.475681
5.4359999 -12.204 -1.603 13.455754
5.4879999 -12.166 -1.601 13.442206
5.5300002 -12.157 -1.602 13.451392
5.5650001 -12.133 -1.601 13.444036
5.5999999 -12.108 -1.6 13.435909
5.6350002 -12.085 -1.599 13.429715
5.6939998 -12.062 -1.6 13.434042
5.7309999 -12.042 -1.599 13.431713
5.7740002 -12.035 -1.601 13.444088
5.809 -12.011 -1.6 13.437581
5.8470001 -11.995 -1.601 13.43989
5.908 -11.976 -1.602 13.449738
5.9510002 -11.968 -1.603 13.461688
5.9949999 -11.962 -1.605 13.476109
6.0250001 -11.929 -1.603 13.459988
6.0710001 -11.926 -1.6059999 13.478343
6.1079998 -11.906 -1.6059999 13.477379
6.1739998 -11.897 -1.609 13.499844
6.2150002 -11.883 -1.609 13.506326
6.25 -11.86 -1.609 13.502258
6.2919998 -11.849 -1.61 13.512223
6.3340001 -11.837 -1.6109999 13.521443
6.395 -11.818 -1.613 13.53377
6.428 -11.791 -1.612 13.525732
6.4679999 -11.776 -1.613 13.531851
6.5079999 -11.761 -1.614 13.5381
6.559 -11.764 -1.617 13.56565
6.5939999 -11.74 -1.617 13.561826
6.6609998 -11.73 -1.62 13.586251
6.6890001 -11.693 -1.618 13.567863
6.7290001 -11.679 -1.619 13.5757
6.7810001 -11.684 -1.623 13.60632
6.8309999 -11.684 -1.626 13.631664
6.9120002 -11.696 -1.633 13.683525
6.9590001 -11.692 -1.636 13.704271
7.0050001 -11.685 -1.638 13.721964
7.04 -11.661 -1.638 13.71946
7.079 -11.642 -1.638 13.723391
7.1479998 -11.633 -1.642 13.751973
7.1890001 -11.617 -1.643 13.759937
7.223 -11.591 -1.643 13.755816
7.289 -11.615 -1.65 13.811598
7.381 -11.599 -1.655 13.847563
7.408 -11.601 -1.6569999 13.863885
7.454 -11.592 -1.66 13.881361
7.5040002 -11.589 -1.663 13.906132
7.5440001 -11.572 -1.664 13.913734
7.619 -11.528 -1.664 13.918076
7.6739998 -11.532 -1.669 13.952163
7.6869998 -11.511 -1.668 13.941854
7.7319999 -11.5 -1.67 13.957891
7.8039999 -11.451 -1.67 13.957676
7.8449998 -11.435 -1.671 13.967659
7.901 -11.44 -1.676 14.00387
7.9419999 -11.46 -1.681 14.043957
8.0139999 -11.487 -1.6900001 14.107852
8.0959997 -11.449 -1.692 14.124011
8.1169996 -11.403 -1.688 14.098349
8.1400003 -11.359 -1.6849999 14.075714
8.1330004 -11.276 -1.676 14.003673
8.1540003 -11.193 -1.668 13.948233
8.1809998 -11.156 -1.6670001 13.934274
8.2180004 -11.133 -1.6670001 13.937651
8.2469997 -11.099 -1.666 13.92754
8.2880001 -11.081 -1.6670001 13.937661
8.3529997 -11.06 -1.67 13.960126
8.3929996 -11.04 -1.671 13.968403
8.4180002 -11.001 -1.669 13.95243
8.4530001 -10.976 -1.669 13.953901
8.467 -10.922 -1.665 13.919497
8.5 -10.894 -1.664 13.917547
8.533 -10.831 -1.66 13.888062
8.5620003 -10.798 -1.659 13.880092
8.5900002 -10.763 -1.658 13.870083
8.6160002 -10.727 -1.656 13.858078
7.8179998 -9.6829996 -1.564 12.543034
7.7820001 -9.5459995 -1.545 12.412601
7.7729998 -9.474 -1.5369999 12.350651
7.7690001 -9.408 -1.529 12.296572
7.7620001 -9.3400002 -1.521 12.239187
7.7490001 -9.2650003 -1.512 12.172649
7.79 -9.2250004 -1.511 12.168314
7.835 -9.2189999 -1.5140001 12.193005
7.875 -9.2080002 -1.517 12.210822
7.9169998 -9.198 -1.52 12.230801
8.0019999 -9.1800003 -1.526 12.273267
8.052 -9.1780005 -1.53 12.30493
8.0710001 -9.1709995 -1.531 12.31228
8.1409998 -9.1920004 -1.54 12.374989
9.0480003 -10.14 -1.6339999 13.687799
9.0459995 -10.075 -1.627 13.637553
8.7749996 -9.6820002 -1.563 13.159966
8.9069996 -9.7650003 -1.5829999 13.31149
9.092 -9.9049997 -1.614 13.541731
9.0299997 -9.776 -1.596 13.403666
9.1680002 -9.8620005 -1.617 13.561931
9.2720003 -9.849 -1.625 13.624002
9.1960001 -9.7379999 -1.607 13.489904
8.7860003 -9.2469997 -1.521 12.845787
9.2609997 -9.684 -1.608 13.495615
7.948 -8.2130003 -1.42 11.516965
7.9710002 -8.1859999 -1.419 11.513514
8.0059996 -8.1700001 -1.421 11.526672
9.5459995 -9.7030001 -1.637 13.709635
8.0699997 -8.1070004 -1.421 11.526821
8.0939999 -8.0810003 -1.421 11.525392
8.1230001 -8.059 -1.4220001 11.530511
8.1020002 -7.9879999 -1.4119999 11.464916
9.7080002 -9.533 -1.636 13.704008
9.724 -9.4890003 -1.633 13.684443
9.7939997 -9.4379997 -1.635 13.699324
9.8100004 -9.3940001 -1.633 13.680279
9.8360004 -9.3599997 -1.632 13.675523
9.8500004 -9.3430004 -1.632 13.673975
9.8909998 -9.2650003 -1.6289999 13.65012
9.9169998 -9.2309999 -1.628 13.645828
9.9399996 -9.1949997 -1.627 13.638135
9.9090004 -9.1079998 -1.6160001 13.555641
9.5290003 -8.7159996 -1.63 13.016429
10.011 -9.0579996 -1.622 13.597733
9.5860004 -8.6300001 -1.628 13.000719
9.6029997 -8.5909996 -1.626 12.987177
8.1420002 -7.2329998 -1.3430001 10.973246
8.1590004 -7.2020001 -1.342 10.965357
8.1370001 -7.1370001 -1.334 10.90537
8.1330004 -7.066 -1.327 10.855182
8.1339998 -7.0219998 -1.323 10.826854
8.0860004 -6.9359999 -1.3099999 10.73348
7.895 -6.7290001 -1.27 10.450998
7.8969998 -6.6869998 -1.267 10.425155
7.8860002 -6.6360002 -1.261 10.38343
7.8759999 -6.5640001 -1.253 10.328963
7.869 -6.5159998 -1.248 10.292566
7.8730001 -6.4780002 -1.245 10.271254
7.9070001 -6.4640002 -1.248 10.288899
7.9369998 -6.447 -1.249 10.301445
8.0109997 -6.4460001 -1.257 10.358913
8.0609999 -6.4439998 -1.263 10.397116
8.1199999 -6.4499998 -1.27 10.447478
8.1540003 -6.4349999 -1.272 10.464938
8.198 -6.428 -1.276 10.495455
8.2559996 -6.4109998 -1.281 10.531069
8.2819996 -6.3899999 -1.283 10.538961
8.309 -6.369 -1.284 10.547621
8.349 -6.3579998 -1.2869999 10.572906
8.4469995 -6.3499999 -1.298 10.647023
0 0 0 0
8.5690002 -6.3790002 -1.314 10.763178
8.618 -6.3730001 -1.319 10.799297
7.9569998 -5.8049998 -1.196 9.9218082
7.8800001 -5.711 -1.179 9.8030586
7.849 -5.6500001 -1.171 9.7416906
7.848 -5.631 -1.169 9.7296371
7.8730001 -5.612 -1.17 9.7389717
7.8930001 -5.5879998 -1.171 9.7414799
7.908 -5.5250001 -1.1670001 9.7172003
7.888 -5.474 -1.161 9.6712532
7.8629999 -5.4380002 -1.155 9.6297789
7.881 -5.414 -1.155 9.63097
7.8509998 -5.3210001 -1.1440001 9.553009
7.8730001 -5.3000002 -1.145 9.5595589
7.8730001 -5.2639999 -1.142 9.5392866
7.8569999 -5.217 -1.137 9.4995956
7.8649998 -5.2049999 -1.137 9.4996328
7.8540001 -5.1269999 -1.13 9.447134
7.8870001 -5.1139998 -1.175 9.4730349
7.8660002 -5.0650001 -1.126 9.4231663
7.8559999 -5.0229998 -1.122 9.3918123
7.8319998 -4.9559999 -1.114 9.3350496
7.8530002 -4.934 -1.115 9.341156
7.8530002 -4.9000001 -1.112 9.3228836
7.8299999 -4.8509998 -1.1059999 9.2770863
7.8000002 -4.7989998 -1.098 9.2236662
7.7800002 -4.7360001 -1.091 9.1732426
7.7750001 -4.6989999 -1.0880001 9.1495886
7.776 -4.6659999 -1.086 9.1332979
7.7800002 -4.6360002 -1.084 9.1211824
7.8390002 -4.638 -1.091 9.173399
7.881 -4.6290002 -1.096 9.2053804
8.0430002 -4.6739998 -1.119 9.3695402
8.092 -4.6690001 -1.124 9.40975
8.1129999 -4.6469998 -1.125 9.4170589
8.2220001 -4.6760001 -1.141 9.5272312
8.2139997 -4.6370001 -1.137 9.5007544
8.3360004 -4.6550002 -1.153 9.617034
8.415 -4.664 -1.164 9.6912346
8.4469995 -4.6469998 -1.1670001 9.7112465
8.5139999 -4.6490002 -1.175 9.7714901
8.552 -4.6360002 -1.179 9.7989407
8.5860004 -4.619 -1.182 9.820982
8.7259998 -4.6420002 -1.201 9.9565878
8.7410002 -4.6149998 -1.201 9.9571934
8.7729998 -4.5970001 -1.204 9.9773521
8.8330002 -4.5929999 -1.211 10.02916
10.749 -5.5310001 -1.513 12.182861
11.631 -5.9320002 -1.562 13.149472
11.646 -5.8940001 -1.561 13.145542
11.67 -5.8600001 -1.562 13.151743
11.671 -5.8150001 -1.559 13.132286
11.682 -5.7519999 -1.557 13.114072
11.705 -5.7179999 -1.558 13.119829
11.705 -5.6719999 -1.5549999 13.09949
11.694 -5.6220002 -1.551 13.067598
11.743 -5.599 -1.5549999 13.102095
11.771 -5.5450001 -1.556 13.104374
11.786 -5.507 -1.5549999 13.101713
11.787 -5.4619999 -1.553 13.083525
11.811 -5.4289999 -1.554 13.09155
10.593 -4.7930002 -1.448 11.716707
10.585 -4.7490001 -1.444 11.691037
10.583 -4.7090001 -1.442 11.672786
10.555 -4.6760001 -1.436 11.633362
10.566 -4.6009998 -1.433 11.613054
10.545 -4.553 -1.428 11.574369
10.432 -4.4650002 -1.408 11.434392
10.304 -4.3720002 -1.386 11.278644
10.282 -4.3429999 -1.382 11.246826
10.812 -4.4879999 -1.459 11.797041
10.862 -4.4699998 -1.465 11.836815
10.928 -4.4569998 -1.472 11.893394
10.991 -4.4419999 -1.48 11.946709
11.113 -4.4310002 -1.495 12.056847
11.968 -4.723 -1.536 12.957587
12.022 -4.6999998 -1.5420001 12.999856
11.492 -4.4580002 -1.5470001 12.423084
11.89 -4.5419998 -1.517 12.818079
12.032 -4.553 -1.536 12.956007
12.009 -4.5009999 -1.53 12.915726
11.546 -4.2919998 -1.546 12.414568
11.556 -4.2550001 -1.545 12.411011
12.118 -4.4120002 -1.54 12.987812
12.141 -4.355 -1.54 12.990053
12.154 -4.3169999 -1.54 12.989527
12.168 -4.2789998 -1.54 12.990061
12.192 -4.2449999 -1.5420001 13.00164
12.2 -4.204 -1.541 12.995703
12.208 -4.164 -1.54 12.990218
12.212 -4.1020002 -1.538 12.974004
12.225 -4.0630002 -1.538 12.973976
11.64 -3.8340001 -1.5369999 12.351175
11.678 -3.806 -1.541 12.378854
11.675 -3.7639999 -1.538 12.362798
11.681 -3.7260001 -1.5369999 12.356828
11.706 -3.6730001 -1.539 12.364865
11.725 -3.6389999 -1.54 12.372936
11.744 -3.6040001 -1.541 12.380834
11.74 -3.563 -1.539 12.364913
12.135 -3.615 -1.5089999 12.751609
11.802 -3.4809999 -1.544 12.401149
12.207 -3.553 -1.516 12.803629
12.409 -3.569 -1.5420001 13.0038
12.428 -3.5320001 -1.543 13.011958
12.447 -3.4949999 -1.544 13.020245
12.463 -3.4360001 -1.544 13.019847
12.497 -3.4030001 -1.548 13.044222
12.515 -3.3659999 -1.549 13.051995
12.51 -3.323 -1.5470001 13.035936
12.54 -3.2880001 -1.549 13.056108
12.561 -3.2309999 -1.55 13.062181
12.573 -3.1919999 -1.55 13.064137
12.6 -3.1570001 -1.553 13.08199
12.6 -3.115 -1.551 13.071681
12.643 -3.0409999 -1.5549999 13.096227
12.646 -3.0209999 -1.554 13.094376
12.663 -2.983 -1.5549999 13.102209
12.691 -2.947 -1.558 13.121496
12.673 -2.901 -1.554 13.093344
12.73 -2.8299999 -1.5599999 13.13375
12.733 -2.789 -1.559 13.127768
12.751 -2.7720001 -1.561 13.14187
12.775 -2.7349999 -1.563 13.157652
12.814 -2.6589999 -1.566 13.180335
12.833 -2.6210001 -1.567 13.191324
12.84 -2.5799999 -1.567 13.190053
12.857 -2.563 -1.569 13.203529
12.877 -2.5250001 -1.571 13.21593
12.893 -2.444 -1.571 13.216301
12.904 -2.404 -1.571 13.219701
12.906 -2.362 -1.5700001 13.213962
12.917 -2.323 -1.571 13.217915
12.92 -2.26 -1.5700001 13.209804
12.929 -2.22 -1.5700001 13.211826
12.94 -2.1800001 -1.571 13.216052
12.945 -2.1389999 -1.5700001 13.21413
12.955 -2.099 -1.571 13.217635
7.77 -1.225 -0.95099998 7.9232521
7.6950002 -1.189 -0.93900001 7.8427334
7.6500001 -1.158 -0.93199998 7.7930799
7.6500001 -1.133 -0.93099999 7.7892842
7.6399999 -1.107 -0.92900002 7.7754798
7.6409998 -1.071 -0.92900002 7.7714195
7.632 -1.045 -0.92699999 7.7587872
7.6220002 -1.0190001 -0.92500001 7.7452483
7.6329999 -0.99599999 -0.926 7.7532043
7.6110001 -0.96899998 -0.92299998 7.727756
7.6160002 -0.94499999 -0.92299998 7.7297096
7.618 -0.90899998 -0.92299998 7.7273626
7.6009998 -0.88300002 -0.92000002 7.7072234
7.6199999 -0.861 -0.92199999 7.7237167
7.6079998 -0.83600003 -0.92000002 7.7088881
7.6090002 -0.81099999 -0.92000002 7.7072048
7.6069999 -0.77499998 -0.91900003 7.7014046
7.6090002 -0.75099999 -0.91900003 7.7010031
7.5739999 -0.72399998 -0.91299999 7.6631079
7.5469999 -0.69700003 -0.90899998 7.6334329
7.5999999 -0.67799997 -0.91600001 7.6849685
7.6090002 -0.64300001 -0.917 7.6909833
7.5780001 -0.616 -0.912 7.6574988
7.599 -0.59399998 -0.91500002 7.6769047
7.5929999 -0.56900001 -0.91399997 7.6689506
7.5970001 -0.52200001 -0.91399997 7.669569
7.5819998 -0.509 -0.912 7.6535974
7.6030002 -0.486 -0.91500002 7.6732674
7.6479998 -0.465 -0.921 7.7172771
7.6040001 -0.43799999 -0.91399997 7.6712489
7.6300001 -0.39199999 -0.91799998 7.6950169
7.6290002 -0.37900001 -0.91799998 7.6933746
7.6220002 -0.35499999 -0.91600001 7.6850481
7.6110001 -0.331 -0.91500002 7.6729469
7.6209998 -0.28299999 -0.91600001 7.681067
7.612 -0.259 -0.91399997 7.671051
0 0 0 0
7.6209998 -0.223 -0.91600001 7.67909
7.6279998 -0.175 -0.91600001 7.6847939
7.6490002 -0.152 -0.91900003 7.7055092
7.6490002 -0.12800001 -0.91900003 7.7050729
7.6440001 -0.104 -0.91799998 7.6996284
7.6420002 -0.092 -0.91799998 7.6974902
7.6500001 -0.044 -0.91900003 7.7051282
7.6300001 -0.02 -0.91600001 7.6848135
7.652 0.0040000002 -0.92000002 7.7071085
7.6700001 0.028999999 -0.92199999 7.7252717
7.6700001 0.052999999 -0.92199999 7.725399
7.6890001 0.089000002 -0.92500001 7.7449512
7.7030001 0.113 -0.92699999 7.7594013
7.7280002 0.138 -0.93099999 7.7851005
7.7179999 0.162 -0.92900002 7.7753978
7.7189999 0.18700001 -0.93000001 7.7770705
7.73 0.211 -0.93099999 7.7887216
7.9749999 0.25600001 -0.96700001 8.0374899
13.542 0.48500001 -1.628 13.648128
13.536 0.52700001 -1.628 13.643732
13.532 0.56999999 -1.628 13.641492
13.521 0.61199999 -1.626 13.632163
13.508 0.67500001 -1.625 13.622127
13.502 0.71700001 -1.624 13.618203
13.466 0.75800002 -1.62 13.58426
13.473 0.80000001 -1.6210001 13.593725
13.459 0.84200001 -1.619 13.58215
13.451 0.90499997 -1.619 13.578277
13.422 0.94599998 -1.615 13.551872
13.417 0.98799998 -1.615 13.549917
13.426 1.031 -1.617 13.562267
13.391 1.0700001 -1.613 13.530172
13.401 1.113 -1.614 13.543654
13.386 1.176 -1.613 13.534021
13.384 1.2180001 -1.613 13.535758
13.39 1.261 -1.615 13.545865
13.38 1.302 -1.614 13.539742
13.392 1.346 -1.6160001 13.556137
13.413 1.391 -1.619 13.581775
13.412 1.455 -1.62 13.58761
13.415 1.498 -1.6210001 13.595362
13.405 1.539 -1.6210001 13.590076
13.404 1.582 -1.6210001 13.594028
13.411 1.625 -1.623 13.606237
13.424 1.691 -1.626 13.62744
13.427 1.734 -1.627 13.635917
13.429 1.778 -1.628 13.643669
13.422 1.8200001 -1.628 13.642319
13.433 1.864 -1.63 13.659315
13.425 1.927 -1.63 13.660193
13.44 1.973 -1.633 13.681849
13.434 2.0150001 -1.633 13.682078
13.437 2.059 -1.6339999 13.691691
13.426 2.1429999 -1.6339999 13.693789
13.444 2.168 -1.637 13.715726
13.443 2.211 -1.638 13.721727
13.438 2.2539999 -1.638 13.723826
13.446 2.299 -1.641 13.739476
13.43 2.3829999 -1.64 13.738021
13.447 2.408 -1.643 13.75935
13.444 2.451 -1.6440001 13.764131
13.44 2.494 -1.6440001 13.767947
13.432 2.5799999 -1.645 13.776104
13.422 2.6210001 -1.645 13.774097
13.429 2.6670001 -1.647 13.78998
13.425 2.688 -1.647 13.790163
13.432 2.733 -1.649 13.806053
13.428 2.8199999 -1.651 13.819891
13.417 2.862 -1.651 13.817841
13.433 2.9100001 -1.654 13.843745
13.428 2.9530001 -1.655 13.848121
13.427 3.0190001 -1.6569999 13.861614
13.421 3.062 -1.6569999 13.865234
13.414 3.105 -1.658 13.868142
13.423 3.151 -1.66 13.887453
13.407 3.1919999 -1.66 13.881358
13.413 3.2609999 -1.663 13.903534
13.403 3.303 -1.663 13.903805
13.402 3.3469999 -1.664 13.91348
13.396 3.3900001 -1.664 13.918111
13.387 3.4330001 -1.665 13.920112
13.388 3.5 -1.6670001 13.937984
13.377 3.5420001 -1.6670001 13.938033
13.377 3.5880001 -1.669 13.950034
13.369 3.631 -1.669 13.953491
13.358 3.6730001 -1.669 13.953948
13.367 3.72 -1.6720001 13.975359
13.372 3.79 -1.675 13.99929
11.734 3.358 -1.53 12.300562
11.556 3.3469999 -1.505 12.124709
11.359 3.329 -1.477 11.928565
11.351 3.365 -1.478 11.931173
11.345 3.441 -1.48 11.947381
11.339 3.4590001 -1.48 11.946882
0 0 0 0
12.621 3.9330001 -1.673 13.325054
12.611 4.0170002 -1.675 13.340886
0 0 0 0
0 0 0 0
11.034 3.6140001 -1.4450001 11.70035
10.999 3.641 -1.442 11.675368
10.979 3.711 -1.442 11.678584
10.968 3.7449999 -1.442 11.679102
10.964 3.763 -1.443 11.681254
10.969 3.8039999 -1.4450001 11.699461
10.975 3.845 -1.448 11.718846
10.915 3.901 -1.443 11.680636
10.916 3.9400001 -1.4450001 11.694901
10.906 3.9749999 -1.4450001 11.697414
10.914 3.997 -1.447 11.712609
10.898 4.0689998 -1.449 11.722745
10.883 4.1030002 -1.448 11.720538
10.891 4.145 -1.451 11.743096
10.887 4.1820002 -1.4529999 11.752748
10.895 4.2049999 -1.455 11.768605
10.902 4.2859998 -1.46 11.804873
10.907 4.3280001 -1.4630001 11.825168
10.915 4.3709998 -1.466 11.848714
10.912 4.4099998 -1.4680001 11.860643
10.911 4.4489999 -1.47 11.874529
11.095 4.585 -1.501 12.098523
11.399 4.7509999 -1.55 12.446353
11.335 4.7670002 -1.5420001 12.392912
11.309 4.7979999 -1.541 12.380992
11.307 4.8390002 -1.543 12.395363
0 0 0 0
12.351 5.4089999 -1.619 13.580339
12.339 5.4499998 -1.62 13.585942
12.313 5.4850001 -1.619 13.576315
12.283 5.5170002 -1.617 13.56186
12.226 5.5609999 -1.612 13.527687
12.199 5.5960002 -1.6109999 13.517624
12.16 5.6240001 -1.608 13.493726
12.125 5.6539998 -1.605 13.474397
12.092 5.6849999 -1.603 13.457537
12.048 5.7329998 -1.6 13.438066
12.019 5.7659998 -1.599 13.426091
12.002 5.8039999 -1.599 13.427257
11.963 5.8319998 -1.596 13.404208
11.92 5.8569999 -1.592 13.376296
11.882 5.8850002 -1.589 13.354403
11.703 5.8649998 -1.566 13.183732
11.618 5.8670001 -1.556 13.108042
11.525 5.8660002 -1.545 13.023924
11.422 5.8590002 -1.5319999 12.928147
11.317 5.8499999 -1.5190001 12.829823
11.068 5.7800002 -1.569 12.584546
10.978 5.777 -1.558 12.502703
10.897 5.7789998 -1.548 12.431321
10.814 5.7779999 -1.5369999 12.35679
10.626 5.7639999 -1.513 12.18297
10.12 5.533 -1.4349999 11.622724
10.054 5.5170002 -1.425 11.556419
9.9639997 5.5089998 -1.414 11.473001
