# .PCD v0.7 - Point Cloud Data file format
VERSION 0.7
FIELDS x y z intensity
SIZE 4 4 4 4
TYPE F F F F
COUNT 1 1 1 1
WIDTH 1381
HEIGHT 1
VIEWPOINT 0 0 0 1 0 0 0
POINTS 1381
DATA ascii
8.2589998 -16.561001 -1.617 18.576666
8.3570004 -16.563 -1.622 18.622656
8.4230003 -16.563 -1.625 18.652628
8.4820004 -16.549999 -1.626 18.667906
8.5209999 -16.499001 -1.624 18.640329
8.651 -16.556999 -1.635 18.752258
8.71 -16.544001 -1.636 18.768179
8.7810001 -16.552 -1.64 18.808622
8.8360004 -16.531 -1.641 18.815998
8.8909998 -16.509001 -1.642 18.822676
8.9870005 -16.5 -1.645 18.8606
9.0209999 -16.440001 -1.642 18.824141
9.1049995 -16.469 -1.648 18.890339
7.335 -13.083 -1.273 15.052829
7.112 -12.594 -1.22 14.514743
6.9510002 -12.266 -1.1849999 14.148335
6.75 -11.742 -1.13 13.590951
6.6719999 -11.522 -1.108 13.360379
6.5890002 -11.297 -1.084 13.122964
6.5910001 -11.22 -1.0779999 13.057249
6.546 -11.105 -1.066 12.934739
6.3499999 -10.63 -1.092 12.43028
6.342 -10.541 -1.084 12.349442
6.3499999 -10.479 -1.079 12.300252
6.3940001 -10.477 -1.081 12.321499
6.428 -10.422 -1.0779999 12.292247
6.4889998 -10.447 -1.0829999 12.345841
6.5050001 -10.4 -1.08 12.314277
6.526 -10.361 -1.0779999 12.292317
6.5609999 -10.345 -1.0779999 12.297472
6.592 -10.321 -1.0779999 12.293884
6.6459999 -10.298 -1.079 12.303754
6.6810002 -10.282 -1.08 12.309415
6.7199998 -10.271 -1.081 12.321543
6.757 -10.257 -1.082 12.3302
6.7859998 -10.231 -1.081 12.324436
6.8379998 -10.205 -1.082 12.331707
6.8899999 -10.213 -1.086 12.367573
6.9109998 -10.175 -1.084 12.347776
6.9549999 -10.172 -1.086 12.370166
6.9850001 -10.146 -1.086 12.365716
7.046 -10.133 -1.0880001 12.389816
7.0760002 -10.108 -1.0880001 12.386492
7.1139998 -10.095 -1.089 12.397739
7.1529999 -10.082 -1.09 12.409683
7.1880002 -10.065 -1.091 12.416192
7.257 -10.061 -1.095 12.453384
7.289 -10.039 -1.095 12.454318
7.388 -10.099 -1.029 12.555125
7.4320002 -10.093 -1.031 12.576416
7.4689999 -10.076 -1.0319999 12.584783
7.5409999 -10.074 -1.036 12.62638
7.592 -10.076 -1.039 12.658742
7.6220002 -10.051 -1.039 12.656895
7.625 -9.9969997 -1.112 12.62209
11.232 -14.599 -1.609 18.489929
11.297 -14.541 -1.609 18.483824
11.334 -14.495 -1.607 18.470165
11.37 -14.447 -1.6059999 18.45459
11.406 -14.398 -1.604 18.438332
11.443 -14.353 -1.603 18.426081
11.497 -14.282 -1.601 18.404339
11.542 -14.246 -1.601 18.404604
11.554 -14.169 -1.596 18.352186
11.603 -14.139 -1.596 18.359961
11.629 -14.08 -1.5930001 18.330786
11.66 -14.028 -1.591 18.310425
11.727 -13.974 -1.592 18.31201
11.766 -13.931 -1.591 18.304174
11.802 -13.885 -1.59 18.292309
11.835 -13.836 -1.5880001 18.276321
11.898 -13.821 -1.591 18.306112
11.974 -13.777 -1.5930001 18.322666
12.008 -13.729 -1.591 18.308708
12.057 -13.699 -1.592 18.318523
12.09 -13.649 -1.591 18.302858
12.135 -13.614 -1.591 18.30657
12.219 -13.578 -1.594 18.335945
12.252 -13.53 -1.5930001 18.322392
12.299 -13.496 -1.5930001 18.328804
12.34 -13.455 -1.5930001 18.326218
12.417 -13.412 -1.595 18.34687
12.449 -13.362 -1.594 18.331982
12.501 -13.333 -1.595 18.346333
12.56 -13.313 -1.598 18.372347
12.59 -13.26 -1.596 18.35437
12.677 -13.227 -1.599 18.390667
12.716 -13.184 -1.599 18.386715
12.757 -13.144 -1.599 18.386478
12.806 -13.112 -1.6 18.397778
12.859 -13.083 -1.602 18.414265
12.969 -13.072 -1.609 18.484074
12.996 -13.017 -1.607 18.464041
13.046 -12.985 -1.608 18.476851
13.109 -12.966 -1.6109999 18.508331
13.186 -12.879 -1.61 18.502197
13.219 -12.871 -1.612 18.520344
13.254 -12.824 -1.6109999 18.512665
13.294 -12.782 -1.6109999 18.512299
13.35 -12.755 -1.613 18.53414
13.434 -12.675 -1.614 18.540037
13.466 -12.665 -1.6160001 18.556583
13.524 -12.64 -1.618 18.581875
13.561 -12.595 -1.618 18.578285
13.66 -12.529 -1.62 18.606339
13.725 -12.508 -1.624 18.640362
13.764 -12.504 -1.626 18.66659
13.81 -12.467 -1.627 18.675903
13.858 -12.432 -1.628 18.68821
14.024 -12.422 -1.64 18.806068
14.067 -12.382 -1.641 18.811892
14.066 -12.342 -1.638 18.784578
14.03 -12.232 -1.628 18.684568
13.979 -12.035 -1.612 18.516268
13.934 -11.92 -1.601 18.406681
13.895 -11.812 -1.591 18.306438
13.841 -11.728 -1.582 18.210491
13.791 -11.612 -1.571 18.096914
13.777 -11.454 -1.5599999 17.984257
13.793 -11.394 -1.557 17.958128
13.817 -11.34 -1.556 17.942303
13.815 -11.302 -1.553 17.916508
13.885 -11.215 -1.553 17.915951
13.91 -11.163 -1.552 17.902775
13.923 -11.102 -1.549 17.874668
13.95 -11.052 -1.548 17.864645
13.964 -11.028 -1.5470001 17.860662
14.035 -10.941 -1.548 17.862894
14.067 -10.895 -1.5470001 17.859865
14.098 -10.849 -1.5470001 17.856304
14.118 -10.794 -1.545 17.838593
14.055 -10.676 -1.533 17.716379
0 0 0 0
11.459 -8.5690002 -1.205 14.359264
11.485 -8.533 -1.205 14.358598
11.395 -8.4099998 -1.191 14.212411
11.394 -8.3549995 -1.188 14.178879
11.324 -8.2209997 -1.174 14.042653
11.283 -8.1379995 -1.166 13.960397
11.28 -8.0819998 -1.163 13.925146
11.196 -7.9689999 -1.15 13.7905
11.184 -7.908 -1.145 13.745157
11.12 -7.7839999 -1.133 13.620893
11.1 -7.7189999 -1.128 13.567069
11.071 -7.6479998 -1.1210001 13.502429
11.053 -7.5840001 -1.1160001 13.451072
11.034 -7.52 -1.1109999 13.399025
10.978 -7.4070001 -1.101 13.288805
10.955 -7.3410001 -1.095 13.232586
10.94 -7.2820001 -1.091 13.187168
10.909 -7.2119999 -1.084 13.122282
10.895 -7.1539998 -1.08 13.0785
10.824 -7.0339999 -1.068 12.952867
10.814 -6.98 -1.064 12.914917
10.789 -6.9159999 -1.058 12.858963
10.758 -6.849 -1.052 12.796487
10.755 -6.7989998 -1.049 12.767021
10.704 -6.697 -1.04 12.669137
10.681 -6.6360002 -1.035 12.61711
10.661 -6.5770001 -1.03 12.568801
10.606 -6.4580002 -1.096 12.465721
10.584 -6.4219999 -1.092 12.428017
10.563 -6.3639998 -1.087 12.379783
10.537 -6.303 -1.081 12.325775
10.477 -6.178 -1.069 12.209749
10.498 -6.1459999 -1.0700001 12.211724
10.671 -6.2249999 -1.089 12.401886
10.718 -6.2069998 -1.0930001 12.433705
10.751 -6.1810002 -1.094 12.449322
10.826 -6.1339998 -1.099 12.491438
10.388 -5.842 -1.044 11.963672
10.339 -5.7930002 -1.0369999 11.896602
10.353 -5.7579999 -1.036 11.891698
10.356 -5.6750002 -1.0319999 11.854003
10.358 -5.6339998 -1.03 11.836005
10.343 -5.5830002 -1.027 11.798402
10.341 -5.54 -1.024 11.776096
10.33 -5.513 -1.022 11.753576
10.331 -5.4310002 -1.018 11.715872
10.339 -5.3940001 -1.017 11.705744
10.383 -5.375 -1.02 11.736172
10.412 -5.349 -1.022 11.75015
10.428 -5.336 -1.022 11.758426
10.486 -5.283 -1.025 11.786302
10.534 -5.2659998 -1.029 11.821792
10.544 -5.2290001 -1.028 11.814193
10.574 -5.2030001 -1.03 11.829691
10.645 -5.1760001 -1.035 11.881845
10.667 -5.145 -1.036 11.888196
10.71 -5.125 -1.039 11.918441
10.749 -5.1020002 -1.0420001 11.943917
10.794 -5.0819998 -1.045 11.976192
10.866 -5.0539999 -1.051 12.029858
10.936 -5.0450001 -1.057 12.089888
10.979 -5.0229998 -1.0599999 12.119925
11.047 -5.0120001 -1.066 12.177549
11.076 -4.9829998 -1.067 12.19207
11.161 -4.9590001 -1.074 12.260223
11.211 -4.9390001 -1.0779999 12.298062
11.285 -4.9289999 -1.085 12.36218
11.344 -4.9130001 -1.09 12.410157
11.416 -4.902 -1.097 12.472292
11.536 -4.8829999 -1.03 12.569164
0 0 0 0
13.937 -5.7909999 -1.2819999 15.146589
13.889 -5.7199998 -1.275 15.074759
13.903 -5.6750002 -1.275 15.070656
13.828 -5.5689998 -1.2640001 14.960784
13.797 -5.506 -1.2589999 14.908331
13.774 -5.447 -1.255 14.86499
13.759 -5.3909998 -1.251 14.830305
13.724 -5.3280001 -1.2460001 14.774582
13.691 -5.2410002 -1.24 14.712212
13.639 -5.1719999 -1.232 14.638638
13.653 -5.1279998 -1.232 14.636209
10.767 -4.0120001 -0.99900001 11.533535
10.741 -3.964 -0.995 11.492276
10.716 -3.9159999 -0.991 11.452065
10.674 -3.8440001 -0.98400003 11.387663
10.679 -3.8080001 -0.98299998 11.380167
10.58 -3.7349999 -0.97100002 11.261859
10.519 -3.6760001 -0.963 11.184351
10.35 -3.562 -0.94199997 10.986251
10.357 -3.5280001 -0.94199997 10.981876
10.357 -3.4920001 -0.94099998 10.970278
10.362 -3.457 -0.94 10.963827
10.371 -3.424 -0.94 10.961981
10.318 -3.3699999 -0.93300003 10.894425
10.296 -3.309 -0.92900002 10.854498
10.287 -3.2709999 -0.926 10.834172
10.28 -3.233 -0.92500001 10.816021
10.29 -3.201 -0.92500001 10.816012
10.272 -3.1600001 -0.921 10.786466
10.226 -3.0929999 -0.91500002 10.722637
10.169 -3.04 -0.90799999 10.652447
10.144 -2.9979999 -0.90399998 10.616306
10.113 -2.954 -0.89899999 10.573887
10.072 -2.891 -0.89300001 10.516677
10.037 -2.846 -0.889 10.470502
10.03 -2.8110001 -0.88700002 10.454156
10.026 -2.7750001 -0.88599998 10.440608
10.005 -2.7360001 -0.88200003 10.409786
9.9680004 -2.675 -0.87699997 10.357885
9.9499998 -2.6370001 -0.87400001 10.330544
9.9390001 -2.5999999 -0.87199998 10.310389
9.9429998 -2.5680001 -0.87199998 10.306224
9.9219999 -2.529 -0.86900002 10.276044
9.9320002 -2.4820001 -0.86799997 10.27416
9.9320002 -2.4489999 -0.86799997 10.266238
9.9399996 -2.418 -0.86799997 10.266632
9.9860001 -2.3959999 -0.87199998 10.306376
10.034 -2.3410001 -0.875 10.340554
10.053 -2.329 -0.87699997 10.356457
10.079 -2.302 -0.87900001 10.375842
10.112 -2.276 -0.88200003 10.402435
10.169 -2.2219999 -0.88599998 10.44657
10.203 -2.1960001 -0.889 10.474442
10.266 -2.1760001 -0.89499998 10.532177
10.291 -2.164 -0.89700001 10.55425
10.358 -2.1440001 -0.90399998 10.616125
12.484 -2.5079999 -1.1289999 12.783387
12.497 -2.464 -1.051 12.78088
12.487 -2.441 -1.049 12.766521
12.46 -2.395 -1.046 12.731133
12.449 -2.312 -1.043 12.704755
12.446 -2.2709999 -1.0420001 12.694335
12.404 -2.224 -1.038 12.644479
12.398 -2.1819999 -1.036 12.631105
12.356 -2.1210001 -1.108 12.585588
12.361 -2.0810001 -1.108 12.583821
12.311 -2.033 -1.102 12.5263
12.315 -1.994 -1.102 12.523963
12.311 -1.954 -1.101 12.513634
12.256 -1.886 -1.094 12.448427
12.234 -1.8430001 -1.091 12.420052
10.117 -1.487 -0.86699998 10.262384
10.108 -1.4529999 -0.866 10.248552
12.207 -1.721 -1.087 12.37555
12.178 -1.659 -1.0829999 12.338105
12.152 -1.6160001 -1.079 12.306373
12.143 -1.576 -1.0779999 12.292205
12.102 -1.5319999 -1.073 12.245683
12.123 -1.4960001 -1.075 12.262169
12.08 -1.433 -1.0700001 12.211665
12.063 -1.392 -1.067 12.189837
12.042 -1.352 -1.0650001 12.164371
12.008 -1.309 -1.061 12.125646
12.018 -1.272 -1.061 12.131612
11.985 -1.212 -1.057 12.092411
11.961 -1.171 -1.054 12.064315
11.944 -1.132 -1.052 12.043557
11.93 -1.0930001 -1.05 12.025891
11.933 -1.0549999 -1.05 12.025473
11.891 -0.995 -1.045 11.978227
11.88 -0.95599997 -1.044 11.964041
11.869 -0.91799998 -1.0420001 11.949965
11.836 -0.87800002 -1.039 11.913913
11.849 -0.84100002 -1.04 11.924248
11.807 -0.78200001 -1.035 11.878048
11.778 -0.74299997 -1.0319999 11.846449
11.768 -0.70499998 -1.03 11.834007
11.744 -0.667 -1.028 11.80776
11.758 -0.63099998 -1.029 11.819797
11.723 -0.57300001 -1.025 11.781667
11.705 -0.53600001 -1.023 11.761838
11.687 -0.498 -1.021 11.742079
11.665 -0.46000001 -1.018 11.718368
11.67 -0.42399999 -1.0190001 11.722075
11.642 -0.368 -1.016 11.692041
11.635 -0.331 -1.015 11.683879
11.608 -0.294 -1.012 11.655739
11.597 -0.257 -1.011 11.643823
11.59 -0.22 -1.01 11.636004
11.555 -0.16500001 -1.006 11.599883
11.538 -0.12800001 -1.0039999 11.582307
11.518 -0.092 -1.002 11.561868
11.52 -0.056000002 -1.002 11.56363
11.481 0.017000001 -0.99800003 11.524306
11.473 0.035 -0.99699998 11.51629
11.465 0.071000002 -0.99599999 11.508401
11.444 0.107 -0.99400002 11.487586
11.424 0.142 -0.99199998 11.467868
11.409 0.214 -0.991 11.453959
11.391 0.23100001 -0.98900002 11.436187
11.39 0.26699999 -0.98900002 11.435974
11.377 0.303 -0.98799998 11.423839
11.35 0.338 -0.98500001 11.397675
11.344 0.40900001 -0.98500001 11.394027
11.326 0.426 -0.98299998 11.376556
11.304 0.461 -0.98100001 11.355848
11.305 0.49700001 -0.98100001 11.358362
11.357 0.56999999 -0.98699999 11.41405
11.429 0.61000001 -0.99400002 11.48835
11.545 0.634 -1.007 11.606164
11.624 0.67500001 -1.015 11.687738
11.737 0.71799999 -1.027 11.803704
11.941 0.80500001 -1.049 12.013988
12 0.847 -1.0549999 12.076027
12.11 0.87400001 -1.067 12.188292
12.176 0.917 -1.074 12.257624
16.396 1.3 -1.415 16.508211
16.356001 1.349 -1.4119999 16.472168
16.323999 1.449 -1.409 16.448643
16.312 1.474 -1.408 16.438871
16.297001 1.524 -1.4069999 16.428465
16.294001 1.576 -1.408 16.430479
16.283001 1.626 -1.4069999 16.424362
16.492001 1.752 -1.429 16.64625
16.547001 1.785 -1.434 16.704664
16.445999 1.826 -1.425 16.608305
16.302 1.862 -1.411 16.468552
16.275999 1.962 -1.41 16.454351
16.226 2.0079999 -1.406 16.410118
16.200001 2.03 -1.403 16.386866
16.191 2.0810001 -1.403 16.384365
16.208 2.135 -1.406 16.408361
16.013 2.211 -1.388 16.224403
15.961 2.2550001 -1.383 16.178728
15.963 2.2809999 -1.3839999 16.184431
15.946 2.3299999 -1.383 16.174564
15.972 2.4360001 -1.387 16.216124
15.935 2.4820001 -1.3839999 16.186415
15.904 2.5280001 -1.381 16.162771
0 0 0 0
16.290001 2.6689999 -1.421 16.568251
16.305 2.777 -1.424 16.600979
16.319 2.832 -1.427 16.624269
16.327999 2.8859999 -1.428 16.642467
16.337999 2.941 -1.4299999 16.662071
16.385 3.03 -1.436 16.724569
16.385 3.0829999 -1.437 16.734339
16.399 3.1389999 -1.4400001 16.758703
16.427999 3.198 -1.444 16.798557
16.426001 3.2509999 -1.444 16.806774
16.476 3.342 -1.451 16.874031
16.474001 3.3959999 -1.452 16.882944
16.5 3.4549999 -1.456 16.920607
16.52 3.5139999 -1.459 16.952501
16.542 3.573 -1.462 16.986511
16.593 3.6659999 -1.469 17.056528
12.642 2.8280001 -1.072 12.998729
12.604 2.8610001 -1.069 12.968766
12.576 2.8959999 -1.067 12.949173
12.561 2.934 -1.067 12.943167
12.531 2.99 -1.0650001 12.926728
12.526 3.03 -1.066 12.931277
12.528 3.072 -1.067 12.943201
12.499 3.1070001 -1.0650001 12.923339
12.485 3.145 -1.064 12.918914
12.476 3.2049999 -1.0650001 12.925046
12.444 3.2390001 -1.063 12.90249
12.438 3.279 -1.063 12.906807
12.422 3.3169999 -1.063 12.901106
12.413 3.3559999 -1.063 12.90253
12.386 3.411 -1.062 12.890918
12.375 3.45 -1.062 12.890732
12.36 3.4879999 -1.061 12.886483
12.361 3.53 -1.062 12.898955
12.332 3.5639999 -1.061 12.880451
12.319 3.6229999 -1.061 12.884472
12.31 3.6619999 -1.061 12.886896
12.289 3.698 -1.0599999 12.877046
12.298 3.743 -1.062 12.898787
12.25 3.7709999 -1.059 12.860965
12.247 3.8329999 -1.0599999 12.87651
12.245 3.875 -1.061 12.887256
12.223 3.9100001 -1.0599999 12.876856
12.211 3.948 -1.0599999 12.877067
12.212 4.0339999 -1.063 12.904885
12.13 4.0279999 -1.0549999 12.824769
12.112 4.0640001 -1.0549999 12.819114
12.091 4.099 -1.054 12.810348
12.026 4.119 -1.048 12.754965
12.208 4.2680001 -1.0700001 12.976748
12.385 4.3520002 -1.089 13.172474
12.936 4.5929999 -1.148 13.775109
0 0 0 0
15.05 5.4549999 -1.372 16.066795
15.177 5.5549998 -1.387 16.221069
16.525 6.1389999 -1.531 17.694826
16.5 6.1890001 -1.531 17.688913
16.483999 6.2420001 -1.531 17.692619
16.458 6.2919998 -1.53 17.686039
16.441999 6.3449998 -1.531 17.690176
16.381001 6.4099998 -1.528 17.656729
16.318001 6.4439998 -1.523 17.610275
16.292 6.493 -1.522 17.604115
16.25 6.5359998 -1.52 17.581018
16.212 6.6389999 -1.521 17.584616
16.187 6.658 -1.5190001 17.56859
16.145 6.7010002 -1.517 17.546104
16.129999 6.7540002 -1.517 17.552626
16.065001 6.8460002 -1.515 17.528467
16.049 6.8979998 -1.516 17.534283
16.031 6.921 -1.515 17.526791
16.002001 6.9679999 -1.5140001 17.518826
15.976 7.0159998 -1.5140001 17.514252
15.888 7.0970001 -1.5089999 17.466339
15.871 7.1490002 -1.51 17.472176
15.847 7.1680002 -1.508 17.457998
15.81 7.2119999 -1.507 17.44248
15.795 7.2649999 -1.507 17.450882
15.729 7.3540001 -1.505 17.428362
15.709 7.4050002 -1.506 17.432003
15.672 7.4180002 -1.503 17.403946
15.644 7.4650002 -1.502 17.398764
15.62 7.5739999 -1.505 17.424547
15.607 7.6290002 -1.506 17.436975
15.643 7.7080002 -1.513 17.504452
15.599 7.7470002 -1.511 17.482218
15.594 7.7750001 -1.511 17.490185
15.57 7.8850002 -1.5140001 17.518286
15.524 7.9229999 -1.512 17.494417
15.513 7.9790001 -1.513 17.510189
15.511 8.0089998 -1.5140001 17.522198
15.466 8.1090002 -1.515 17.528498
15.447 8.1619997 -1.516 17.536427
15.436 8.2180004 -1.517 17.552975
15.406 8.2639999 -1.517 17.548214
15.393 8.3509998 -1.52 17.578226
15.367 8.3990002 -1.52 17.578348
15.335 8.4449997 -1.5190001 17.572353
15.319 8.4989996 -1.521 17.5846
15.294 8.5480003 -1.521 17.586592
15.278 8.6330004 -1.523 17.614355
15.254 8.6829996 -1.524 17.618216
15.246 8.7419996 -1.526 17.640627
15.247 8.8070002 -1.529 17.674051
15.266 8.882 -1.535 17.72842
15.24 8.9309998 -1.535 17.730667
15.223 9.0179996 -1.538 17.760334
15.21 9.0749998 -1.539 17.778309
15.197 9.132 -1.541 17.796543
15.192 9.1940002 -1.544 17.824434
15.194 9.2600002 -1.5470001 17.860529
15.18 9.3509998 -1.551 17.896347
15.159 9.4029999 -1.552 17.905876
15.163 9.4720001 -1.556 17.945932
15.132 9.5190001 -1.556 17.944635
15.124 9.5799999 -1.558 17.970509
15.105 9.6680002 -1.561 18.001886
15.1 9.7320004 -1.564 18.032413
15.084 9.7889996 -1.566 18.050039
15.118 9.8789997 -1.574 18.128046
15.109 9.941 -1.576 18.154591
15.007 9.9750004 -1.5700001 18.087996
14.844 9.934 -1.554 17.928848
14.563 9.8120003 -1.525 17.626173
14.483 9.8240004 -1.5190001 17.56632
14.537 9.9280005 -1.529 17.669958
14.443 9.9639997 -1.523 17.612526
14.399 10 -1.522 17.596809
14.362 10.042 -1.521 17.590403
14.316 10.076 -1.5190001 17.572166
14.292 10.127 -1.52 17.582029
14.223 10.179 -1.518 17.555914
14.203 10.232 -1.5190001 17.570612
14.151 10.263 -1.517 17.546545
14.116 10.305 -1.516 17.542883
14.088 10.352 -1.517 17.548134
14.012 10.399 -1.5140001 17.51478
13.97 10.435 -1.512 17.502464
13.918 10.465 -1.51 17.47876
13.893 10.514 -1.511 17.488359
13.813 10.557 -1.507 17.450508
13.767 10.59 -1.506 17.434059
13.729 10.63 -1.505 17.42835
13.685 10.664 -1.5039999 17.414423
13.645 10.702 -1.503 17.40626
13.554 10.769 -1.5 17.376198
13.535 10.789 -1.5 17.373795
13.486 10.819 -1.498 17.354164
13.433 10.847 -1.4960001 17.330347
13.36 10.927 -1.495 17.324085
13.318 10.963 -1.494 17.314404
13.292 10.976 -1.493 17.302568
13.271 11.029 -1.495 17.320314
13.235 11.07 -1.495 17.318924
13.159 11.147 -1.494 17.310312
13.115 11.181 -1.493 17.298758
13.091 11.196 -1.492 17.290192
13.056 11.237 -1.492 17.290327
12.985 11.319 -1.492 17.290346
12.94 11.352 -1.4910001 17.278152
12.903 11.391 -1.49 17.276064
12.885 11.411 -1.49 17.275827
12.842 11.445 -1.489 17.266212
12.755 11.512 -1.487 17.246082
12.712 11.546 -1.4859999 17.236973
12.675 11.586 -1.4859999 17.236567
12.639 11.589 -1.484 17.211958
12.466 11.575 -1.471 17.074707
12.331 11.521 -1.457 16.938414
12.205 11.475 -1.4450001 16.814447
12.072 11.422 -1.432 16.680704
11.963 11.354 -1.42 16.554247
11.807 11.348 -1.408 16.436691
11.777 11.39 -1.409 16.444304
11.772 11.458 -1.413 16.488249
11.731 11.489 -1.413 16.480597
11.521 11.39 -1.391 16.260395
11.284 11.225 -1.363 15.974576
10.952 10.963 -1.322 15.552535
10.835 10.914 -1.3099999 15.434659
10.734 10.88 -1.301 15.339027
10.528 10.772 -1.279 15.116568
10.429 10.738 -1.27 15.022702
10.34 10.713 -1.262 14.942444
10.246 10.682 -1.2539999 14.854567
10.133 10.631 -1.242 14.73901
10.041 10.6 -1.234 14.652797
9.8380003 10.485 -1.212 14.428805
9.7580004 10.464 -1.205 14.358479
9.6969995 10.464 -1.201 14.316756
9.6040001 10.43 -1.192 14.228232
9.5299997 10.415 -1.186 14.166853
9.4259996 10.399 -1.178 14.084614
9.3990002 10.434 -1.179 14.092537
9.3780003 10.477 -1.181 14.110605
9.3529997 10.516 -1.182 14.123101
9.3380003 10.566 -1.1849999 14.150719
9.2700005 10.589 -1.182 14.122923
9.2340002 10.615 -1.182 14.118856
9.132 10.564 -1.171 14.01295
9.0200005 10.5 -1.159 13.890778
8.9720001 10.512 -1.1569999 13.868583
8.809 10.418 -1.14 13.690611
8.7480001 10.413 -1.136 13.647291
8.2329998 9.8599997 -1.061 12.88905
8.1350002 9.8039999 -1.051 12.782849
7.9770002 9.7069998 -1.034 12.606647
7.9130001 9.6829996 -1.105 12.553767
7.8299999 9.6429996 -1.096 12.469866
7.7709999 9.632 -1.092 12.424022
7.6259999 9.5749998 -1.077 12.28806
7.5500002 9.5410004 -1.0700001 12.213848
7.493 9.5 -1.063 12.145988
7.4289999 9.4799995 -1.057 12.090396
7.3010001 9.4379997 -1.045 11.977999
7.2270002 9.4049997 -1.038 11.906343
7.165 9.3850002 -1.0319999 11.852446
7.119 9.3549995 -1.027 11.800462
7.046 9.3199997 -1.0190001 11.728038
6.9200001 9.2749996 -1.008 11.615855
6.8720002 9.2709999 -1.0039999 11.583775
6.7969999 9.2299995 -0.99599999 11.50583
6.756 9.2060003 -0.99199998 11.462027
6.6919999 9.1789999 -0.98500001 11.402067
6.5689998 9.1300001 -0.97399998 11.289701
6.5170002 9.1190004 -0.97000003 11.25026
6.4450002 9.0780001 -0.96200001 11.174685
6.4039998 9.0500002 -0.95700002 11.127873
6.2989998 9.0220003 -0.94800001 11.044121
6.2350001 8.9910002 -0.94199997 10.981833
6.1869998 8.9809999 -0.93800002 10.946103
6.1300001 8.96 -0.93300003 10.896283
6.0830002 8.9510002 -0.92900002 10.862152
5.9829998 8.8940001 -0.91900003 10.758442
5.9250002 8.868 -0.91299999 10.704234
5.8720002 8.849 -0.90799999 10.658783
5.8130002 8.8210001 -0.90200001 10.602576
5.7690001 8.8140001 -0.89899999 10.572425
5.6729999 8.7580004 -0.889 10.472622
5.6290002 8.75 -0.88599998 10.441894
5.5689998 8.7180004 -0.88 10.382277
5.5180001 8.698 -0.875 10.337754
5.4689999 8.6800003 -0.87099999 10.296165
5.3839998 8.6370001 -0.86199999 10.214121
5.335 8.618 -0.85799998 10.171938
5.2839999 8.5959997 -0.85299999 10.126178
5.2399998 8.5860004 -0.85000002 10.094528
5.1939998 8.5699997 -0.84600002 10.056751
5.1110001 8.5240002 -0.83700001 9.97404
5.066 8.5100002 -0.833 9.9387293
5.0240002 8.5 -0.82999998 9.908556
4.9720001 8.4729996 -0.82499999 9.8586578
4.9250002 8.4540005 -0.82099998 9.8183393
4.848 8.4130001 -0.81300002 9.7438517
4.802 8.3940001 -0.80900002 9.7042732
4.75 8.3640003 -0.80400002 9.6522236
4.6989999 8.3360004 -0.79900002 9.6024942
4.6630001 8.3330002 -0.79699999 9.5821533
4.6020002 8.3149996 -0.792 9.5365028
4.553 8.29 -0.787 9.490694
4.5050001 8.2639999 -0.78200001 9.4445887
4.4629998 8.2480001 -0.77899998 9.4103508
4.427 8.243 -0.77600002 9.3886929
4.3839998 8.2250004 -0.773 9.3524122
4.3179998 8.1949997 -0.76700002 9.2946997
4.2919998 8.2080002 -0.76700002 9.2941284
4.2750001 8.2379999 -0.76800001 9.3128986
4.2449999 8.2440004 -0.76800001 9.3044825
4.2119999 8.243 -0.76599997 9.2884197
4.1440001 8.2060003 -0.759 9.2242756
4.1069999 8.1960001 -0.75700003 9.1986361
4.0669999 8.1800003 -0.75300002 9.1662369
4.0250001 8.1610003 -0.75 9.1304464
3.927 8.059 -0.79400003 8.999958
3.892 8.0489998 -0.792 8.9755964
3.8559999 8.04 -0.78899997 8.9516954
3.822 8.0340004 -0.787 8.931529
3.8010001 8.0550003 -0.78799999 8.9415646
3.763 8.0710001 -0.78799999 8.9399195
3.727 8.0609999 -0.78500003 8.9155188
3.698 8.0640001 -0.78399998 8.9060631
3.655 8.0369997 -0.77899998 8.8633642
3.619 8.0229998 -0.77600002 8.8356018
3.562 7.9990001 -0.77100003 8.7901249
3.5209999 7.973 -0.76700002 8.7495403
3.4909999 7.973 -0.76599997 8.7374229
3.457 7.9619999 -0.76300001 8.7135792
3.4200001 7.9460001 -0.75999999 8.6840611
3.3670001 7.9250002 -0.755 8.64363
3.3280001 7.901 -0.75099999 8.6061249
3.296 7.895 -0.74900001 8.5881109
3.263 7.8850002 -0.74699998 8.5661192
3.207 7.8540001 -0.741 8.5158234
3.1760001 7.849 -0.73900002 8.4994059
3.1389999 7.8280001 -0.736 8.4659672
3.1059999 7.8150001 -0.73299998 8.4414902
3.0739999 7.8070002 -0.73100001 8.4221783
3.01 7.7870002 -0.72600001 8.3800087
2.9920001 7.7750001 -0.72399998 8.3622293
2.9590001 7.7620001 -0.72100002 8.3381157
2.925 7.7449999 -0.71799999 8.3100042
2.8599999 7.7199998 -0.713 8.2635565
2.8239999 7.6960001 -0.70899999 8.2283697
2.8069999 7.6869998 -0.708 8.2140417
2.777 7.6810002 -0.70599997 8.1980448
2.711 7.6479998 -0.69999999 8.1444101
2.681 7.6370001 -0.69800001 8.1239605
2.651 7.6290002 -0.69599998 8.1064081
2.6370001 7.6269999 -0.69499999 8.0998716
2.6010001 7.6020002 -0.69099998 8.0643091
2.5439999 7.5890002 -0.68800002 8.0335674
2.5090001 7.5630002 -0.68400002 7.9976192
2.4820001 7.5599999 -0.68300003 7.9862638
2.4549999 7.5180001 -0.67699999 7.9376116
2.405 7.5240002 -0.676 7.9278989
2.375 7.5110002 -0.67400002 7.9063282
2.339 7.4780002 -0.66900003 7.8637757
2.316 7.4889998 -0.67000002 7.8675203
2.289 7.4850001 -0.66799998 7.8556333
2.2460001 7.467 -0.66500002 7.8257799
2.217 7.4569998 -0.66299999 7.8077846
2.1789999 7.4130001 -0.65700001 7.7544994
2.1570001 7.4250002 -0.65799999 7.7599125
2.125 7.3990002 -0.65399998 7.7258363
2.0799999 7.375 -0.64999998 7.6902227
2.0539999 7.3699999 -0.64899999 7.6783471
2.0239999 7.3530002 -0.64600003 7.6537905
1.9960001 7.3400002 -0.64399999 7.6337643
1.97 7.3369999 -0.64300001 7.6240354
1.926 7.3080001 -0.63800001 7.5844173
1.905 7.323 -0.639 7.5936599
1.872 7.289 -0.63499999 7.5522928
1.844 7.2740002 -0.63200003 7.5306602
1.818 7.2680001 -0.63099998 7.5184512
1.774 7.2360001 -0.62599999 7.4765396
1.756 7.2620001 -0.62900001 7.4977212
1.721 7.2160001 -0.62300003 7.4445033
1.692 7.1919999 -0.62 7.414319
1.666 7.184 -0.61799997 7.4004955
1.64 7.1729999 -0.616 7.3838325
1.585 7.0819998 -0.60500002 7.2823739
1.561 7.0830002 -0.60500002 7.2781615
1.544 7.1110001 -0.60699999 7.3019662
1.512 7.0689998 -0.602 7.2539167
1.4859999 7.0549998 -0.60000002 7.2347231
1.455 7.073 -0.60100001 7.2460718
1.425 7.039 -0.597 7.206563
1.4069999 7.0650001 -0.59899998 7.2286015
1.376 7.0240002 -0.59399998 7.182116
1.323 6.9840002 -0.58899999 7.1325669
1.29 6.8649998 -0.57499999 7.0087767
1.265 6.8299999 -0.61400002 6.9732428
1.219 6.823 -0.61199999 6.958005
0 0 0 0
1.191 6.941 -0.58099997 7.0663657
1.182 6.9510002 -0.58200002 7.0747614
1.154 6.921 -0.57800001 7.0403152
1.135 6.9380002 -0.57999998 7.0541101
1.089 6.9320002 -0.57800001 7.0407834
1.063 6.881 -0.61500001 6.9897318
1.0549999 6.927 -0.57700002 7.0305963
1 6.8319998 -0.60900003 6.9316015
0.977 6.8249998 -0.60799998 6.9213305
0.95499998 6.822 -0.60699999 6.9152122
0.93099999 6.8039999 -0.60399997 6.8939095
0.90799999 6.7950001 -0.60299999 6.8818674
0.884 6.7839999 -0.60100001 6.8677006
0.85000002 6.7719998 -0.59899998 6.8513708
0.829 6.7709999 -0.59899998 6.8478088
0.80699998 6.7680001 -0.59799999 6.8421254
0.787 6.7839999 -0.60000002 6.8558025
0.76700002 6.796 -0.60100001 6.8655009
0.73299998 6.7839999 -0.59899998 6.8497262
0.70999998 6.7719998 -0.59799999 6.8353262
0.68800002 6.7649999 -0.59600002 6.825964
0.66500002 6.7550001 -0.59500003 6.8136835
0.64300001 6.743 -0.59299999 6.7994962
0.60900003 6.7259998 -0.59100002 6.7793241
0.588 6.7220001 -0.58999997 6.7734137
0.56400001 6.6999998 -0.588 6.7493582
0.54400003 6.71 -0.588 6.7576461
0.52200001 6.704 -0.588 6.7499514
0.49900001 6.6799998 -0.58399999 6.724021
0.46700001 6.6700001 -0.583 6.7116971
0.44499999 6.6620002 -0.58200002 6.7021632
0.42300001 6.6490002 -0.57999998 6.6876402
0.40200001 6.6500001 -0.57999998 6.6873393
0.38 6.632 -0.57800001 6.6679764
0.34799999 6.618 -0.57599998 6.6521277
0.32699999 6.6129999 -0.57499999 6.6460004
0.30599999 6.6020002 -0.574 6.6339669
0.285 6.605 -0.574 6.6360173
0.264 6.5939999 -0.57300001 6.6241117
0.23199999 6.5809999 -0.57099998 6.609798
0.211 6.566 -0.56900001 6.5939851
0.19 6.5599999 -0.56900001 6.5873713
0.169 6.5469999 -0.56699997 6.573679
0.148 6.5440001 -0.56699997 6.5701847
0.117 6.5359998 -0.56599998 6.5615039
0.097000003 6.5229998 -0.56400001 6.5480556
0.075999998 6.513 -0.56300002 6.5377302
0.055 6.507 -0.56199998 6.531456
0.014 6.4959998 -0.56099999 6.5201941
0.0040000002 6.4879999 -0.56 6.5121241
-0.016000001 6.4759998 -0.55800003 6.5000148
-0.037 6.4660001 -0.55699998 6.4900522
-0.057 6.4619999 -0.55699998 6.4862118
-0.097000003 6.4390001 -0.55400002 6.4635167
-0.107 6.4310002 -0.55299997 6.4556193
-0.127 6.427 -0.55299997 6.4519968
-0.147 6.4200001 -0.55199999 6.4453635
-0.18799999 6.4089999 -0.551 6.4353881
-0.207 6.3990002 -0.55000001 6.4259286
-0.21699999 6.3930001 -0.54900002 6.4201975
-0.237 6.3899999 -0.54900002 6.4179177
-0.257 6.375 -0.54699999 6.4035835
-0.29699999 6.3720002 -0.54699999 6.402328
-0.31600001 6.3610001 -0.546 6.3922057
-0.32600001 6.348 -0.54400003 6.3796015
-0.34599999 6.3509998 -0.54500002 6.3837242
-0.38499999 6.3369999 -0.54400003 6.3719482
-0.405 6.3260002 -0.542 6.3620806
-0.42399999 6.3169999 -0.54100001 6.3542857
-0.44299999 6.2969999 -0.53899997 6.3355327
-0.45300001 6.3010001 -0.54000002 6.3403006
-0.491 6.2800002 -0.53799999 6.3220983
-0.51099998 6.2800002 -0.53799999 6.3236833
-0.52999997 6.277 -0.53799999 6.322268
-0.54900002 6.2670002 -0.537 6.3138781
-0.57800001 6.2540002 -0.53600001 6.303483
-0.59799999 6.2529998 -0.53600001 6.3043561
-0.61699998 6.2470002 -0.53500003 6.3001528
-0.63599998 6.2350001 -0.53399998 6.290062
-0.65600002 6.237 -0.53399998 6.2940974
-0.68300003 6.2160001 -0.53200001 6.2759995
-0.70200002 6.2119999 -0.53200001 6.2741351
-0.72000003 6.1880002 -0.52999997 6.2522511
-0.74000001 6.1950002 -0.53100002 6.2615962
-0.759 6.191 -0.53100002 6.2599139
-0.78799999 6.1830001 -0.52999997 6.2555041
-0.80599999 6.1669998 -0.528 6.2418194
-0.82599998 6.1700001 -0.52899998 6.2474813
-0.84299999 6.1539998 -0.528 6.233871
-0.86199999 6.1490002 -0.52700001 6.2314506
-0.88999999 6.1370001 -0.52600002 6.2234674
-0.91000003 6.1370001 -0.52700001 6.2264433
-0.92699999 6.118 -0.52499998 6.2100625
-0.94599998 6.1129999 -0.52399999 6.2079191
-0.96600002 6.1160002 -0.52499998 6.2140355
-0.98199999 6.0949998 -0.523 6.1957145
-1.012 6.0939999 -0.52399999 6.1996412
-1.027 6.066 -0.52100003 6.1743445
-1.048 6.0780001 -0.52200001 6.1897392
-1.067 6.073 -0.52200001 6.1880774
-1.0829999 6.052 -0.51999998 6.1700888
-1.113 6.053 -0.52100003 6.1764894
-1.13 6.039 -0.51999998 6.1657782
-1.148 6.0300002 -0.51899999 6.1602082
-1.1670001 6.026 -0.51899999 6.1598639
-1.184 6.0149999 -0.51800001 6.1522679
-1.204 6.0170002 -0.51899999 6.1581869
-1.229 5.9949999 -0.51700002 6.1414781
-1.249 5.9970002 -0.51800001 6.1475472
-1.2690001 5.9970002 -0.51800001 6.1516418
-1.284 5.9759998 -0.51599997 6.1341243
-1.301 5.9640002 -0.51499999 6.1259384
-1.324 5.9330001 -0.51200002 6.1004596
-1.336 5.8969998 -0.50800002 6.0677485
-1.355 5.8990002 -0.509 6.0739865
-1.368 5.8699999 -0.50599998 6.0485005
-1.388 5.8709998 -0.50700003 6.0541086
-1.413 5.855 -0.505 6.0442219
-1.428 5.8369999 -0.50400001 6.0302382
-1.451 5.848 -0.50599998 6.0465312
-1.465 5.8280001 -0.50400001 6.0304084
-1.51 5.8530002 -0.50800002 6.0659523
-1.516 5.8369999 -0.50599998 6.0518475
-1.543 5.8649998 -0.50999999 6.0859818
-1.563 5.8660002 -0.51099998 6.0921302
-1.595 5.8390002 -0.509 6.0742927
-1.617 5.8470001 -0.51099998 6.0879569
-1.626 5.8449998 -0.51099998 6.0884333
-1.64 5.8239999 -0.509 6.0718741
-1.6619999 5.8319998 -0.50999999 6.0856032
-1.693 5.8010001 -0.50800002 6.0643148
-1.715 5.8070002 -0.509 6.0763111
-1.723 5.8000002 -0.509 6.0718875
-1.74 5.7909999 -0.50800002 6.068059
-1.7589999 5.789 -0.509 6.071712
-1.791 5.763 -0.50700003 6.0561457
-1.811 5.7649999 -0.50800002 6.064075
-1.819 5.7579999 -0.50700003 6.0597339
-1.835 5.7470002 -0.50700003 6.0541134
-1.87 5.73 -0.50599998 6.0486226
-1.887 5.7220001 -0.50599998 6.0463285
-1.909 5.7270002 -0.50700003 6.0580411
-1.913 5.7090001 -0.505 6.0421252
-1.932 5.7069998 -0.50599998 6.0463629
-1.971 5.704 -0.50700003 6.0561957
-1.984 5.6849999 -0.505 6.0423923
-2.0039999 5.684 -0.50599998 6.0481329
-2.0190001 5.6680002 -0.505 6.0380139
-2.0469999 5.664 -0.505 6.043685
-2.066 5.6599998 -0.50599998 6.0464859
-2.082 5.6490002 -0.505 6.0416017
-2.1010001 5.645 -0.505 6.0444393
-2.1199999 5.6440001 -0.50599998 6.050221
-2.1429999 5.6240001 -0.505 6.0396066
-2.1619999 5.619 -0.505 6.0417242
-2.1800001 5.6139998 -0.505 6.0435433
-2.1989999 5.6110001 -0.50599998 6.0477233
-2.2149999 5.599 -0.505 6.0423546
-2.2409999 5.5879998 -0.505 6.0417585
-2.2609999 5.5869999 -0.50599998 6.0483651
-2.2780001 5.5780001 -0.50599998 6.0464373
-2.2909999 5.5609999 -0.505 6.0355964
-2.309 5.5539999 -0.505 6.0360103
-2.326 5.5469999 -0.505 6.0361004
-2.3499999 5.5300002 -0.50400001 6.0297112
-2.368 5.5250001 -0.50400001 6.0321693
-2.3759999 5.4949999 -0.50099999 6.0076118
-2.3889999 5.4790001 -0.5 5.9980631
-2.402 5.46 -0.49900001 5.9858336
-2.424 5.4419999 -0.498 5.9782224
-2.4419999 5.4359999 -0.498 5.9800887
-2.461 5.4320002 -0.498 5.984242
-2.4779999 5.4239998 -0.498 5.9840007
-2.5 5.427 -0.5 5.9960265
-2.5139999 5.4120002 -0.49900001 5.9882336
-2.54 5.402 -0.49900001 5.9901757
-2.562 5.4050002 -0.50099999 6.0024052
-2.5810001 5.4000001 -0.50099999 6.0060439
-2.595 5.3870001 -0.5 6.0003161
-2.632 5.3979998 -0.50300002 6.0265112
-2.6470001 5.3860002 -0.50300002 6.0223432
-2.6589999 5.369 -0.50199997 6.0123577
-2.677 5.362 -0.50199997 6.0140982
-2.6900001 5.3449998 -0.50099999 6.0046749
-2.723 5.348 -0.50300002 6.0223622
-2.7449999 5.3499999 -0.50400001 6.0341978
-2.7609999 5.3390002 -0.50400001 6.0317545
-2.78 5.336 -0.505 6.0379071
-2.7920001 5.3169999 -0.50300002 6.026505
-2.8180001 5.3070002 -0.50400001 6.0298753
-2.8329999 5.2950001 -0.50300002 6.0262694
-2.8570001 5.3000002 -0.505 6.0421419
-2.8789999 5.2989998 -0.50599998 6.0517831
-2.918 5.2919998 -0.50800002 6.0644908
-2.9289999 5.2719998 -0.50599998 6.0521946
-2.9360001 5.2659998 -0.50599998 6.0503621
-2.9590001 5.2690001 -0.50800002 6.0643306
-2.9679999 5.2449999 -0.50599998 6.0477333
-3.0109999 5.244 -0.50800002 6.0682549
-3.023 5.2280002 -0.50700003 6.0603271
-3.036 5.2309999 -0.50800002 6.0694909
-3.0550001 5.2249999 -0.509 6.0739388
-3.0880001 5.2080002 -0.509 6.0760264
-3.1110001 5.2080002 -0.51099998 6.0879149
-3.1240001 5.1929998 -0.50999999 6.0816712
-3.131 5.1869998 -0.50999999 6.0801506
-3.1600001 5.197 -0.51200002 6.1038146
-3.187 5.1690001 -0.51099998 6.0939851
-3.2090001 5.1669998 -0.51200002 6.1039095
-3.221 5.1500001 -0.51099998 6.0957742
-3.2390001 5.1440001 -0.51200002 6.100328
-3.2690001 5.1370001 -0.51300001 6.110507
-3.286 5.1279998 -0.51300001 6.1120658
-3.3080001 5.1279998 -0.51499999 6.1240892
-3.316 5.1040001 -0.51300001 6.1081781
-3.3399999 5.1069999 -0.51499999 6.1239095
-3.365 5.0929999 -0.51499999 6.1259365
-3.3859999 5.0890002 -0.51599997 6.1342621
-3.404 5.0809999 -0.51599997 6.1375914
-3.4230001 5.0760002 -0.51700002 6.1441026
-3.4430001 5.0700002 -0.51800001 6.1504045
-3.4649999 5.052 -0.51800001 6.1479473
-3.487 5.0489998 -0.51899999 6.1579971
-3.5079999 5.046 -0.51999998 6.1675425
-3.5209999 5.0300002 -0.51899999 6.1617937
-3.539 5.0229998 -0.51999998 6.1664777
-3.559 5.0180001 -0.52100003 6.1739979
-3.5899999 5.0110002 -0.52200001 6.1863322
-3.6129999 5.0110002 -0.52399999 6.1998763
-3.6210001 4.9879999 -0.52200001 6.1858115
-3.645 4.9879999 -0.52399999 6.2000599
-3.664 4.9809999 -0.52399999 6.2056289
-3.691 4.9689999 -0.52499998 6.21209
-3.714 4.967 -0.52600002 6.2242718
-3.7260001 4.9499998 -0.52600002 6.2178974
-3.7490001 4.9499998 -0.52700001 6.2317915
-3.7650001 4.9380002 -0.52700001 6.2319183
-3.7939999 4.928 -0.528 6.2416668
-3.8099999 4.9159999 -0.528 6.24195
-3.832 4.914 -0.52999997 6.2540002
-3.855 4.9109998 -0.53100002 6.265852
-3.875 4.9050002 -0.53200001 6.2735696
-3.8989999 4.8870001 -0.53200001 6.2743921
-3.9260001 4.8899999 -0.53399998 6.2937059
-3.9330001 4.8670001 -0.53299999 6.280149
-3.9590001 4.868 -0.53500003 6.2974067
-3.9849999 4.868 -0.537 6.3139539
-4.0110002 4.8540001 -0.53799999 6.3197217
-4.0320001 4.848 -0.53799999 6.3284736
-4.0409999 4.8270001 -0.537 6.3180676
-4.0580001 4.8179998 -0.53799999 6.3221779
-4.1009998 4.8070002 -0.54000002 6.3416915
-4.1059999 4.7979999 -0.54000002 6.33811
-4.1389999 4.8060002 -0.54299998 6.3658314
-4.1490002 4.7870002 -0.542 6.357935
-4.191 4.7740002 -0.54400003 6.3758526
-4.2090001 4.7639999 -0.54400003 6.3802285
-4.2249999 4.7519999 -0.54500002 6.3819394
-4.2449999 4.7600002 -0.54699999 6.4013152
-4.2540002 4.7399998 -0.546 6.3923573
-4.3010001 4.7319999 -0.54900002 6.4180861
-4.3130002 4.7150002 -0.54799998 6.4135404
-4.3330002 4.7080002 -0.54900002 6.4219589
-4.3509998 4.7129998 -0.551 6.4379478
-4.3920002 4.697 -0.55299997 6.4542456
-4.4099998 4.6869998 -0.55400002 6.4593329
-4.421 4.6690001 -0.55299997 6.4537287
-4.448 4.6680002 -0.55500001 6.471704
-4.4650002 4.671 -0.55699998 6.4857316
-4.5040002 4.6529999 -0.55800003 6.4998298
-4.527 4.6479998 -0.56 6.5123901
-4.5430002 4.6350002 -0.56 6.514267
-4.5599999 4.6230001 -0.56099999 6.5177026
-4.5999999 4.6199999 -0.56400001 6.54389
-4.6139998 4.6059999 -0.56400001 6.5438766
-4.6430001 4.605 -0.56599998 6.563827
-4.6570001 4.5910001 -0.56599998 6.5639381
-4.6669998 4.572 -0.565 6.5576901
-4.7030001 4.5780001 -0.56900001 6.587872
-4.73 4.5609999 -0.56999999 6.5954924
-4.7540002 4.5560002 -0.57099998 6.6093645
-4.77 4.5430002 -0.57099998 6.6119432
-4.7859998 4.5289998 -0.57200003 6.6139865
-4.8189998 4.5320001 -0.57499999 6.6402116
-4.855 4.5219998 -0.57700002 6.6597624
-4.8670001 4.506 -0.57700002 6.6576767
-4.895 4.5029998 -0.579 6.6763215
-4.9070001 4.4860001 -0.579 6.673686
-4.9359999 4.4840002 -0.58099997 6.6938715
-4.967 4.4699998 -0.583 6.7075982
-4.9920001 4.4640002 -0.58399999 6.7222333
-5.0040002 4.447 -0.58399999 6.7198873
-5.0339999 4.4450002 -0.58700001 6.7411981
-5.0560002 4.4359999 -0.588 6.7518129
-5.0869999 4.421 -0.58899999 6.7653327
-5.1170001 4.4200001 -0.59200001 6.787529
-5.1240001 4.3969998 -0.59100002 6.7777772
-5.1500001 4.3909998 -0.59299999 6.7937493
-5.1830001 4.3920002 -0.59600002 6.8197045
-5.1950002 4.3740001 -0.59500003 6.8171792
-5.2329998 4.3639998 -0.59799999 6.8400574
-5.2459998 4.3470001 -0.59799999 6.8391905
-5.2750001 4.3439999 -0.60000002 6.859735
-5.3039999 4.3400002 -0.60299999 6.8797984
-5.335 4.323 -0.60399997 6.8931389
-5.3660002 4.3200002 -0.60699999 6.9155483
-5.3790002 4.3039999 -0.60699999 6.9156713
-5.4070001 4.2979999 -0.60900003 6.9339261
-5.4489999 4.276 -0.611 6.9533515
-5.4959998 4.2940001 -0.574 6.9981375
-5.5050001 4.2779999 -0.61699998 6.9990711
-5.513 4.256 -0.616 6.9918642
-5.5570002 4.2579999 -0.57700002 7.0245099
-5.5770001 4.2449999 -0.57800001 7.0325699
-5.5830002 4.1999998 -0.61799997 7.0136876
-5.599 4.1929998 -0.57599998 7.0186768
-5.631 4.1890001 -0.579 7.0420966
-5.6620002 4.1849999 -0.58099997 7.0647035
-5.677 4.1680002 -0.58099997 7.0666909
-5.7199998 4.1589999 -0.58499998 7.0963302
-5.75 4.152 -0.58700001 7.1166124
-6.0409999 4.3319998 -0.625 7.459928
-6.0890002 4.3379998 -0.62900001 7.5026531
-6.1069999 4.322 -0.63 7.508131
-6.1680002 4.3210001 -0.63599998 7.5577621
-6.1950002 4.3109999 -0.63700002 7.5742011
-6.2150002 4.296 -0.63800001 7.5821428
-6.2329998 4.2800002 -0.639 7.5879517
-6.244 4.2579999 -0.63800001 7.5845327
-6.3309999 4.2740002 -0.64700001 7.6659794
-6.3449998 4.2540002 -0.64700001 7.66643
-6.368 4.2410002 -0.64899999 7.6784573
-6.4039998 4.2360001 -0.65200001 7.705843
-6.428 4.2220001 -0.653 7.7182174
-6.473 4.2080002 -0.65600002 7.7483759
-6.4980001 4.1950002 -0.65799999 7.7624092
-6.5170002 4.1789999 -0.65899998 7.7697887
-6.5510001 4.171 -0.662 7.7942982
-6.599 4.1440001 -0.66399997 7.8205137
-6.5879998 4.1230001 -0.662 7.7999434
-6.6149998 4.1110001 -0.66399997 7.8166127
-6.6500001 4.1030002 -0.667 7.8423209
0 0 0 0
-6.7490001 4.0770001 -0.67500001 7.9136944
-6.7379999 4.0419998 -0.67199999 7.8860626
-6.77 4.046 -0.67500001 7.9157214
-6.8119998 4.0419998 -0.67900002 7.9499779
-6.8790002 4.0229998 -0.68400002 7.9983144
-6.901 4.0079999 -0.685 8.0098124
-6.9499998 4.007 -0.69 8.0519962
-6.9530001 3.994 -0.69 8.0481272
-7.0139999 3.9990001 -0.69599998 8.1038637
-7.0009999 3.934 -0.69099998 8.0602627
-7.0040002 3.9070001 -0.69 8.0496435
-6.9780002 3.8640001 -0.685 8.0057611
-6.9460001 3.832 -0.68000001 7.9620061
-6.9580002 3.7820001 -0.67799997 7.9483943
-6.9450002 3.747 -0.67500001 7.9201427
-6.9520001 3.7219999 -0.67500001 7.914494
-6.961 3.6989999 -0.67500001 7.9116211
-6.9660001 3.687 -0.67400002 7.9103351
-7.0430002 3.6719999 -0.68099999 7.9719005
-7.0669999 3.6559999 -0.68300003 7.9859447
-7.0910001 3.6400001 -0.68400002 7.9999838
-7.1149998 3.6240001 -0.68599999 8.0141869
-7.1939998 3.622 -0.69300002 8.0841055
-7.223 3.608 -0.69599998 8.1039381
-7.2350001 3.585 -0.69599998 8.104435
-7.2849998 3.582 -0.70099998 8.1482115
-7.3070002 3.5639999 -0.70200002 8.1600952
-7.3520002 3.5569999 -0.70599997 8.1977186
-7.421 3.5469999 -0.71200001 8.2558699
-7.4429998 3.529 -0.71399999 8.2681246
-7.4759998 3.516 -0.71600002 8.2924957
-7.5100002 3.503 -0.71899998 8.3179369
-7.5320001 3.484 -0.72100002 8.3300133
-7.6040001 3.474 -0.727 8.3915443
-7.6259999 3.4549999 -0.72899997 8.4038296
-7.664 3.4430001 -0.73199999 8.4336815
-7.691 3.427 -0.73400003 8.4518976
-7.7270002 3.4130001 -0.73699999 8.4792843
-7.7550001 3.3959999 -0.73900002 8.4981737
-7.8119998 3.378 -0.74400002 8.5435219
-7.8559999 3.3670001 -0.74800003 8.5797977
-7.8720002 3.345 -0.74900001 8.5859432
-7.9169998 3.335 -0.75300002 8.6236954
-7.954 3.3199999 -0.75599998 8.6521702
-8.0039997 3.2969999 -0.75999999 8.6897535
-8.0439997 3.2839999 -0.764 8.7220573
-8.0649996 3.263 -0.76499999 8.7336483
-8.1140003 3.253 -0.76999998 8.7756433
-8.1540003 3.2390001 -0.773 8.807745
-8.217 3.22 -0.77899998 8.8597031
-8.2589998 3.2060001 -0.78299999 8.8939638
-8.3009996 3.1919999 -0.787 8.9283161
-8.3179998 3.1689999 -0.787 8.9359417
-8.3629999 3.1559999 -0.792 8.9737043
-8.4169998 3.131 -0.796 9.0156898
-8.4849997 3.125 -0.74400002 9.0727272
-8.5 3.1010001 -0.80400002 9.0836458
-8.5530005 3.0899999 -0.74900001 9.1248522
-8.5810003 3.0699999 -0.75099999 9.1445322
-8.6490002 3.033 -0.75599998 9.1965122
-8.7040005 3.0369999 -0.76200002 9.250061
-8.7290001 3.0150001 -0.764 9.266572
-8.776 3.0009999 -0.76800001 9.3066635
-8.8140001 2.983 -0.77100003 9.3369875
-8.8870001 2.9460001 -0.77700001 9.3947544
-8.7860003 2.8959999 -0.76499999 9.2825565
-8.9040003 2.905 -0.77700001 9.3980837
0 0 0 0
0 0 0 0
0 0 0 0
0 0 0 0
0 0 0 0
0 0 0 0
0 0 0 0
0 0 0 0
0 0 0 0
0 0 0 0
0 0 0 0
0 0 0 0
0 0 0 0
0 0 0 0
0 0 0 0
0 0 0 0
0 0 0 0
0 0 0 0
0 0 0 0
0 0 0 0
0 0 0 0
0 0 0 0
0 0 0 0
0 0 0 0
0 0 0 0
0 0 0 0
0 0 0 0
0 0 0 0
0 0 0 0
0 0 0 0
0 0 0 0
0 0 0 0
0 0 0 0
0 0 0 0
0 0 0 0
0 0 0 0
0 0 0 0
0 0 0 0
0 0 0 0
0 0 0 0
0 0 0 0
0 0 0 0
0 0 0 0
0 0 0 0
0 0 0 0
0 0 0 0
0 0 0 0
0 0 0 0
0 0 0 0
0 0 0 0
0 0 0 0
0 0 0 0
0 0 0 0
0 0 0 0
0 0 0 0
0 0 0 0
0 0 0 0
-12.714 1.442 -1.057 12.839096
-12.823 1.413 -1.067 12.944666
-12.986 1.349 -1.082 13.100638
-13.058 1.335 -1.089 13.171162
-13.159 1.304 -1.099 13.269043
-13.214 1.267 -1.104 13.320431
-13.331 1.2359999 -1.115 13.434526
-13.484 1.164 -1.1289999 13.581156
-13.581 1.151 -1.138 13.677113
-13.65 1.113 -1.145 13.743081
-13.74 1.077 -1.153 13.830291
-13.894 1.001 -1.168 13.978893
-13.954 0.96100003 -1.174 14.036237
-14.224 0.95700002 -1.2 14.306573
-10.443 0.67199999 -0.89200002 10.502547
0 0 0 0
-10.25 0.56300002 -0.87099999 10.302336
-10.031 0.51800001 -0.84799999 10.080099
-10.017 0.486 -0.847 10.064487
-10.121 0.47499999 -0.85699999 10.16832
-9.9250002 0.403 -0.83700001 9.96838
-9.8760004 0.37 -0.83099997 9.9178047
-9.8360004 0.338 -0.82700002 9.8764906
-9.849 0.30700001 -0.82800001 9.8885098
-9.8210001 0.29100001 -0.82499999 9.8598862
-9.7889996 0.228 -0.82200003 9.8260965
-9.8360004 0.198 -0.82700002 9.8726912
-9.8240004 0.167 -0.82499999 9.8599949
-9.8249998 0.13600001 -0.82499999 9.8605146
-9.8149996 0.105 -0.824 9.8500872
-9.802 0.059 -0.82300001 9.8366671
-9.7860003 0.028000001 -0.82099998 9.8204193
-11.103 0.0020000001 -0.88999999 11.138614
-10.986 -0.033 -0.87900001 11.021158
-10.93 -0.083999999 -0.87300003 10.965131
-10.942 -0.118 -0.87400001 10.977485
-10.939 -0.153 -0.87400001 10.974926
-10.913 -0.186 -0.87199998 10.949364
-10.926 -0.221 -0.87300003 10.963049
-8.7209997 -0.199 -0.65600002 8.7479019
-10.864 -0.30500001 -0.86699998 10.902807
-10.839 -0.338 -0.86500001 10.878713
-10.83 -0.37200001 -0.86400002 10.870776
-10.821 -0.40599999 -0.86299998 10.862948
-10.826 -0.44 -0.86400002 10.869332
-12.444 -0.56800002 -1.023 12.498892
-12.448 -0.60799998 -1.024 12.504836
0 0 0 0
-9.8830004 -0.53899997 -0.77200001 9.9277496
0 0 0 0
-10.529 -0.65899998 -0.83600003 10.582676
-10.662 -0.70200002 -0.84899998 10.718761
-10.652 -0.73500001 -0.84799999 10.710949
-10.648 -0.76800001 -0.84799999 10.709287
-10.639 -0.801 -0.84799999 10.702758
-10.638 -0.85100001 -0.84799999 10.705622
-10.643 -0.88499999 -0.84899998 10.713425
0 0 0 0
-9.6120005 -0.85799998 -0.74800003 9.6791639
-9.6899996 -0.92699999 -0.75599998 9.7635527
-10.18 -0.991 -0.80400002 10.259674
-10.265 -1.0319999 -0.81300002 10.348731
-11.042 -1.165 -0.88999999 11.1389
-11.036 -1.199 -0.88999999 11.136561
-11.019 -1.232 -0.889 11.123241
-11.027 -1.268 -0.88999999 11.135289
-11.031 -1.304 -0.89099997 11.143485
-11.005 -1.336 -0.889 11.121387
-10.981 -1.385 -0.88700002 11.103484
0 0 0 0
-9.9180002 -1.312 -0.78200001 10.034919
-10.135 -1.374 -0.80400002 10.259265
-10.077 -1.4299999 -0.79900002 10.209271
0 0 0 0
0 0 0 0
-10.048 -1.507 -0.79799998 10.191671
-10.043 -1.538 -0.79799998 10.191374
-10.049 -1.604 -0.79900002 10.207527
-10.036 -1.618 -0.79799998 10.196864
0 0 0 0
0 0 0 0
-10.903 -1.8660001 -0.88599998 11.096952
0 0 0 0
0 0 0 0
0 0 0 0
-11.498 -2.1370001 -0.94800001 11.733264
-11.6 -2.194 -0.95899999 11.844548
-11.873 -2.323 -0.98799998 12.138394
-12.255 -2.444 -0.94800001 12.532232
-12.21 -2.45 -1.023 12.495324
-27.653 -5.6560001 -2.2260001 28.313139
-27.927999 -5.8039999 -2.2509999 28.613398
-28.299 -5.974 -2.2850001 29.012812
-28.621 -6.1370001 -2.3150001 29.362965
-28.903999 -6.3400002 -2.3429999 29.683773
-28.900999 -6.4349999 -2.3440001 29.701368
-28.938999 -6.539 -2.3499999 29.761497
-28.936001 -6.6339998 -2.3510001 29.779678
-28.919001 -6.8210001 -2.3529999 29.805557
-28.951 -6.8769999 -2.3570001 29.849773
-28.929001 -6.9679999 -2.3570001 29.849548
-28.916 -7.0609999 -2.358 29.858885
-28.952 -7.1659999 -2.3629999 29.919117
-29.02 -7.3769999 -2.3729999 30.036837
-29.063 -7.4359999 -2.378 30.093304
-29.061001 -7.533 -2.3800001 30.115648
-29.044001 -7.6269999 -2.381 30.122986
-27.551001 -7.4180002 -2.2520001 28.620899
-27.521999 -7.5029998 -2.2509999 28.615074
-27.718 -7.6040001 -2.27 28.831602
-29.07 -8.0740004 -2.3929999 30.265175
-29.091 -8.1789999 -2.3970001 30.313824
-29.035 -8.3599997 -2.3959999 30.309431
-26.790001 -7.803 -2.198 27.989679
-26.721001 -7.8740001 -2.194 27.943254
-26.707001 -7.915 -2.194 27.941452
-26.632 -8.0760002 -2.191 27.915689
-26.589001 -8.1540003 -2.1900001 27.897289
-26.577 -8.2410002 -2.191 27.911493
-26.542999 -8.323 -2.1900001 27.903391
-26.518999 -8.4519997 -2.1919999 27.9195
-26.525999 -8.5469999 -2.1949999 27.955284
-26.622 -8.6700001 -2.2060001 28.084982
-26.943001 -8.8690004 -2.2379999 28.45335
-27.121 -9.0220003 -2.256 28.671146
-29.5 -9.9700003 -2.4760001 31.237501
-29.427 -10.049 -2.4719999 31.193613
-29.41 -10.146 -2.474 31.209135
-29.327 -10.221 -2.4690001 31.15506
-29.233 -10.291 -2.4630001 31.089214
-29.035999 -10.376 -2.45 30.931425
-28.844 -10.409 -2.4349999 30.761223
-28.754999 -10.479 -2.4300001 30.70121
-28.698 -10.561 -2.428 30.675806
-28.646 -10.644 -2.4260001 30.655725
-28.554001 -10.763 -2.4219999 30.611097
-28.459 -10.829 -2.4170001 30.545439
-28.406 -10.912 -2.415 30.525476
-28.336 -10.987 -2.4119999 30.487061
-28.261 -11.06 -2.408 30.443491
-28.193001 -11.136 -2.405 30.40789
-28.115999 -11.259 -2.4030001 30.38172
-28.041 -11.331 -2.3989999 30.338829
-27.966999 -11.403 -2.395 30.297152
-27.885 -11.472 -2.391 30.247263
-27.841 -11.557 -2.3900001 30.239008
-27.801001 -11.694 -2.392 30.255032
-27.788 -11.791 -2.3940001 30.280884
-27.757999 -11.882 -2.395 30.289017
-27.73 -11.973 -2.3959999 30.299282
-27.698 -12.062 -2.3959999 30.305311
-27.684 -12.212 -2.4000001 30.352871
-27.653 -12.302 -2.401 30.361034
-27.618 -12.391 -2.401 30.365368
-27.603001 -12.488 -2.404 30.391693
-27.561001 -12.574 -2.4030001 30.388956
-27.538 -12.668 -2.405 30.407295
-27.667999 -12.886 -2.4230001 30.617611
-27.676001 -12.996 -2.427 30.671606
-27.712 -13.119 -2.4349999 30.756989
-27.709999 -13.225 -2.4389999 30.800867
-27.736 -13.398 -2.447 30.899513
-27.749001 -13.512 -2.4519999 30.961161
-27.742001 -13.617 -2.4560001 31.001181
-27.757999 -13.733 -2.461 31.066998
-27.77 -13.848 -2.467 31.129183
-27.815001 -14.035 -2.477 31.253656
-27.836 -14.155 -2.484 31.326939
-27.921 -14.309 -2.4960001 31.47316
-27.885 -14.402 -2.497 31.48374
-26.493999 -13.893 -2.3710001 30.009483
-10.999 -5.7810001 -1.02 12.467492
-10.574 -5.6269999 -0.89999998 12.011769
0 0 0 0
0 0 0 0
-9.7840004 -5.3369999 -0.89399999 11.180763
-9.9829998 -5.467 -0.91799998 11.418892
0 0 0 0
0 0 0 0
0 0 0 0
0 0 0 0
0 0 0 0
0 0 0 0
0 0 0 0
0 0 0 0
0 0 0 0
0 0 0 0
0 0 0 0
0 0 0 0
0 0 0 0
0 0 0 0
0 0 0 0
0 0 0 0
0 0 0 0
0 0 0 0
0 0 0 0
