# .PCD v0.7 - Point Cloud Data file format
VERSION 0.7
FIELDS x y z intensity
SIZE 4 4 4 4
TYPE F F F F
COUNT 1 1 1 1
WIDTH 1588
HEIGHT 1
VIEWPOINT 0 0 0 1 0 0 0
POINTS 1588
DATA ascii
4.3839998 2.6340001 -1.716 5.3946333
4.3579998 2.6370001 -1.709 5.372766
4.3730001 2.664 -1.7180001 5.4010696
4.3709998 2.6819999 -1.721 5.4093075
4.3530002 2.6900001 -1.717 5.397481
4.342 2.7030001 -1.716 5.3947964
4.3299999 2.723 -1.716 5.3952093
4.3319998 2.744 -1.721 5.4090295
4.3280001 2.76 -1.723 5.4146018
4.3119998 2.7690001 -1.72 5.4054699
4.3189998 2.802 -1.728 5.4305568
4.3060002 2.813 -1.726 5.4252815
4.2940001 2.8239999 -1.725 5.4211659
4.2880001 2.8399999 -1.726 5.4250917
4.2639999 2.862 -1.724 5.4170947
4.27 2.8759999 -1.728 5.4304938
4.2659998 2.8929999 -1.73 5.4370122
4.2490001 2.901 -1.727 5.427
4.2410002 2.9159999 -1.728 5.4290996
4.2290001 2.9460001 -1.73 5.4365668
4.2280002 2.9549999 -1.732 5.441308
4.2090001 2.9619999 -1.728 5.4290986
4.1950002 2.9719999 -1.726 5.4230881
4.1929998 2.9909999 -1.729 5.4329338
4.165 3.01 -1.725 5.4206042
4.1739998 3.027 -1.7309999 5.4388752
4.151 3.03 -1.725 5.4210076
4.1550002 3.053 -1.7309999 5.4388599
4.1350002 3.0780001 -1.73 5.4373903
4.1339998 3.0969999 -1.734 5.4486804
4.1259999 3.112 -1.735 5.4514809
4.125 3.1210001 -1.737 5.4565043
4.1149998 3.154 -1.7410001 5.4691882
4.1020002 3.165 -1.74 5.4654579
4.0799999 3.168 -1.734 5.4487963
4.0710001 3.1819999 -1.735 5.4505405
4.0549998 3.2 -1.734 5.448833
4.0539999 3.22 -1.738 5.4611316
4.0450001 3.234 -1.739 5.4630489
4.027 3.2409999 -1.7359999 5.4529352
4.0190001 3.2550001 -1.7359999 5.4553719
4.0029998 3.2739999 -1.7359999 5.4549775
3.987 3.2809999 -1.734 5.4468236
3.9860001 3.3010001 -1.738 5.4594359
3.9719999 3.3110001 -1.7359999 5.4546494
3.9660001 3.3269999 -1.738 5.4606528
3.954 3.3380001 -1.738 5.4586635
3.9460001 3.3629999 -1.7410001 5.4691648
3.934 3.3740001 -1.7410001 5.4672952
3.9130001 3.378 -1.7359999 5.4530864
3.9189999 3.405 -1.744 5.4766889
3.905 3.414 -1.742 5.471653
3.8929999 3.4360001 -1.744 5.4775066
3.869 3.437 -1.738 5.4591918
3.8529999 3.444 -1.735 5.4513273
3.8499999 3.4630001 -1.739 5.4625077
3.8380001 3.474 -1.738 5.4607291
3.8280001 3.4879999 -1.739 5.4629526
3.823 3.516 -1.745 5.4792891
3.8180001 3.533 -1.747 5.4873695
3.8010001 3.54 -1.745 5.4794369
3.7809999 3.5439999 -1.7410001 5.4668984
3.7850001 3.5699999 -1.748 5.4887729
3.7690001 3.5880001 -1.748 5.4895
3.77 3.6110001 -1.7539999 5.5071535
3.7620001 3.6270001 -1.756 5.5128312
3.7449999 3.6340001 -1.753 5.5049062
3.7379999 3.6489999 -1.755 5.510705
3.7320001 3.677 -1.761 5.5271401
3.697 3.6670001 -1.749 5.4930592
3.694 3.6860001 -1.753 5.5050197
3.6949999 3.711 -1.76 5.5246849
3.664 3.7030001 -1.75 5.4954166
3.6689999 3.743 -1.761 5.5292611
3.648 3.7449999 -1.757 5.5154309
3.6429999 3.763 -1.76 5.5253248
3.6240001 3.7679999 -1.757 5.515274
3.612 3.802 -1.763 5.5326228
3.5969999 3.799 -1.758 5.5191822
3.5969999 3.822 -1.7640001 5.5369477
3.5840001 3.832 -1.763 5.535111
3.5569999 3.852 -1.762 5.5312562
3.55 3.868 -1.765 5.5388761
3.53 3.859 -1.757 5.51723
3.5369999 3.891 -1.768 5.5476189
3.5139999 3.891 -1.762 5.5310688
3.494 3.9170001 -1.7640001 5.537384
3.4849999 3.9319999 -1.766 5.5429778
3.474 3.9319999 -1.763 5.5351124
3.4749999 3.9579999 -1.771 5.5567822
3.4530001 3.983 -1.772 5.5612483
3.438 3.9909999 -1.771 5.5573702
3.434 4.0120001 -1.776 5.5715957
3.425 4.027 -1.778 5.5775118
3.4170001 4.0310001 -1.777 5.5751753
3.3829999 4.0419998 -1.772 5.5607944
3.3770001 4.0599999 -1.776 5.5715265
3.369 4.0760002 -1.778 5.5789981
3.3670001 4.0999999 -1.784 5.5972624
3.339 4.105 -1.78 5.5828619
3.329 4.119 -1.781 5.5875182
3.3080001 4.1199999 -1.777 5.5744948
3.3050001 4.1420002 -1.7819999 5.5905914
3.2869999 4.1469998 -1.78 5.5830436
3.2720001 4.1680002 -1.7819999 5.5905042
3.2590001 4.1789999 -1.7819999 5.5911222
3.2520001 4.1960001 -1.786 5.6010461
3.233 4.1989999 -1.7819999 5.591012
3.227 4.2179999 -1.786 5.6031108
3.2090001 4.2220001 -1.784 5.5951428
3.1989999 4.2509999 -1.79 5.6132612
3.1789999 4.2519999 -1.786 5.6013694
3.1670001 4.263 -1.786 5.6029325
3.1589999 4.2810001 -1.79 5.6134071
3.1300001 4.2690001 -1.78 5.5847707
3.115 4.2919998 -1.784 5.5952787
3.095 4.2919998 -1.78 5.5828924
3.0840001 4.3049998 -1.781 5.587132
3.0810001 4.3299999 -1.788 5.6069961
3.0669999 4.3400002 -1.788 5.6070523
3.0550001 4.3509998 -1.788 5.6090255
3.0239999 4.3499999 -1.7819999 5.5895076
3.0220001 4.3759999 -1.789 5.6109161
3.0039999 4.3800001 -1.786 5.6034107
2.9890001 4.3870001 -1.786 5.6008649
2.967 4.3839998 -1.78 5.5848851
2.964 4.4250002 -1.7920001 5.6193581
2.9530001 4.4390001 -1.794 5.6252437
2.937 4.4450002 -1.793 5.621285
2.915 4.4419999 -1.7869999 5.6055293
2.914 4.4710002 -1.796 5.6308842
2.888 4.4770002 -1.793 5.6212921
2.875 4.4879999 -1.793 5.6233993
2.859 4.493 -1.7920001 5.6189141
2.8469999 4.5050001 -1.793 5.6227469
2.8150001 4.5190001 -1.791 5.6172295
2.813 4.5310001 -1.795 5.6271625
2.8039999 4.5479999 -1.798 5.6373329
2.7850001 4.5479999 -1.795 5.6269488
2.773 4.5619998 -1.7970001 5.6329904
2.7539999 4.5949998 -1.803 5.6523757
2.7420001 4.592 -1.8 5.6431398
2.7309999 4.605 -1.802 5.6490345
2.717 4.6149998 -1.803 5.650763
2.698 4.6490002 -1.809 5.6714096
2.678 4.6490002 -1.806 5.660965
2.677 4.6630001 -1.8099999 5.6732707
2.668 4.6810002 -1.814 5.6851196
2.6259999 4.6760001 -1.8049999 5.6585226
2.6210001 4.7010002 -1.812 5.6791186
2.6010001 4.7010002 -1.809 5.6689582
2.589 4.7140002 -1.811 5.6748958
2.5899999 4.7329998 -1.817 5.6930552
2.553 4.7360001 -1.811 5.6769028
2.5450001 4.757 -1.817 5.6927643
2.5250001 4.7550001 -1.813 5.6808996
2.5139999 4.77 -1.8150001 5.6892285
2.513 4.7870002 -1.821 5.7049613
2.4790001 4.7940001 -1.817 5.6946788
2.471 4.8150001 -1.823 5.710814
2.45 4.8130002 -1.819 5.698792
2.4349999 4.8210001 -1.819 5.6991248
2.424 4.8369999 -1.822 5.7089429
2.402 4.8499999 -1.823 5.7109923
2.395 4.8740001 -1.83 5.7306895
2.3710001 4.8629999 -1.822 5.7087731
2.365 4.8909998 -1.83 5.7327137
2.359 4.9169998 -1.8380001 5.7549987
2.3199999 4.8940001 -1.824 5.7149467
2.313 4.9200001 -1.832 5.7369499
2.296 4.9239998 -1.83 5.732913
2.277 4.9239998 -1.8279999 5.7246909
2.27 4.948 -1.834 5.7444897
2.2390001 4.9439998 -1.8279999 5.7269397
2.2309999 4.9660001 -1.834 5.7447433
2.2090001 4.9590001 -1.829 5.7285781
2.204 4.9889998 -1.8380001 5.7555175
2.1860001 4.9920001 -1.836 5.7506137
2.161 4.9970002 -1.834 5.7448659
2.1440001 5.0019999 -1.834 5.742847
2.1340001 5.0209999 -1.8380001 5.7569642
2.1240001 5.0419998 -1.844 5.7735152
2.0999999 5.0289998 -1.836 5.750803
2.0840001 5.0359998 -1.836 5.7511082
2.0650001 5.0560002 -1.84 5.7630687
2.046 5.0549998 -1.8380001 5.7547703
2.0309999 5.0640001 -1.8380001 5.757369
2.02 5.0819998 -1.8430001 5.7709422
2.0039999 5.0879998 -1.8430001 5.7706504
1.975 5.086 -1.8380001 5.7572789
1.9630001 5.1020002 -1.842 5.7685995
1.947 5.1079998 -1.842 5.7684865
1.936 5.1290002 -1.848 5.7853127
1.898 5.125 -1.842 5.7672343
1.895 5.1399999 -1.847 5.781179
1.881 5.1529999 -1.849 5.7888141
1.863 5.1550002 -1.848 5.7844534
1.85 5.1680002 -1.851 5.7928343
1.816 5.1760001 -1.849 5.788578
1.814 5.197 -1.8559999 5.8089709
1.79 5.1810002 -1.848 5.7846322
1.783 5.2140002 -1.858 5.8152428
1.755 5.2389998 -1.863 5.8307729
1.7359999 5.2350001 -1.86 5.8205256
1.73 5.2449999 -1.863 5.8286958
1.711 5.244 -1.86 5.8212242
1.681 5.2610002 -1.863 5.8287783
1.665 5.2680001 -1.863 5.8305078
1.651 5.283 -1.867 5.8413677
1.6339999 5.2880001 -1.867 5.8411121
1.624 5.283 -1.864 5.8328347
1.592 5.2969999 -1.865 5.837028
1.576 5.3049998 -1.867 5.8405895
1.559 5.309 -1.8660001 5.8393426
1.545 5.3239999 -1.87 5.8505468
1.535 5.3210001 -1.868 5.8445439
1.5039999 5.336 -1.87 5.8507957
1.4859999 5.3369999 -1.869 5.8467875
1.472 5.3530002 -1.873 5.8591404
1.457 5.3629999 -1.875 5.8651719
1.4400001 5.3670001 -1.875 5.8646326
1.415 5.3759999 -1.876 5.8671093
1.4 5.388 -1.878 5.8751531
1.385 5.3990002 -1.881 5.8826513
1.369 5.4070001 -1.882 5.8865724
1.351 5.408 -1.881 5.8830113
1.326 5.4159999 -1.882 5.8850026
1.313 5.4369998 -1.888 5.9033446
1.29 5.415 -1.878 5.874794
1.271 5.414 -1.876 5.8690896
1.2589999 5.4380002 -1.8839999 5.8912125
1.234 5.4450002 -1.8839999 5.8923883
1.2180001 5.4530001 -1.886 5.8970952
1.199 5.4510002 -1.8839999 5.8907099
1.184 5.4619999 -1.886 5.8984995
1.1670001 5.4660001 -1.886 5.8988171
1.155 5.4949999 -1.896 5.9265389
1.13 5.506 -1.898 5.9325662
1.1109999 5.5009999 -1.8940001 5.9230533
1.094 5.506 -1.895 5.9248543
1.077 5.5089998 -1.895 5.9245281
1.063 5.5310001 -1.902 5.9447064
1.036 5.5310001 -1.9 5.9392977
1.0190001 5.5339999 -1.9 5.9391508
1.002 5.5430002 -1.902 5.9452887
0.98400003 5.5419998 -1.901 5.9410286
0.96700001 5.5489998 -1.902 5.9450898
0.94300002 5.5640001 -1.906 5.9565244
0.926 5.5710001 -1.9069999 5.9607186
0.90899998 5.5739999 -1.9069999 5.9609065
0.89300001 5.5879998 -1.911 5.9728646
0.85600001 5.5799999 -1.9069999 5.958673
0.847 5.5780001 -1.905 5.9548736
0.83099997 5.5960002 -1.911 5.9714069
0.81599998 5.6110001 -1.915 5.9846807
0.79699999 5.6040001 -1.9119999 5.9745936
0.764 5.6240001 -1.9170001 5.9906564
0.74400002 5.6149998 -1.913 5.9784055
0.736 5.6170001 -1.913 5.9792938
0.71799999 5.619 -1.913 5.9789844
0.70200002 5.6360002 -1.919 5.9949865
0.66799998 5.6529999 -1.924 6.0086942
0.65200001 5.6630001 -1.926 6.0169883
0.64300001 5.6700001 -1.928 6.0232491
0.62599999 5.677 -1.9299999 6.0286899
0.59200001 5.6919999 -1.934 6.0406694
0.57099998 5.6719999 -1.926 6.0172338
0.55500001 5.6859999 -1.931 6.0305371
0.546 5.684 -1.9299999 6.0275097
0.51099998 5.7020001 -1.9349999 6.043025
0.493 5.7020001 -1.934 6.0412097
0.47499999 5.6960001 -1.932 6.033462
0.458 5.7059999 -1.9349999 6.042551
0.449 5.7069998 -1.9349999 6.04282
0.414 5.7249999 -1.9400001 6.0589285
0.39500001 5.7199998 -1.938 6.0522943
0.37799999 5.7329998 -1.942 6.0647779
0.361 5.7379999 -1.944 6.0691104
0.34299999 5.7449999 -1.946 6.075326
0.31600001 5.7519999 -1.948 6.0811238
0.29699999 5.7399998 -1.943 6.0672116
0.27900001 5.7410002 -1.943 6.0673037
0.26100001 5.7410002 -1.943 6.0665026
0.243 5.7459998 -1.944 6.070807
0.21699999 5.7550001 -1.947 6.0793028
0.199 5.763 -1.95 6.0872221
0.18099999 5.763 -1.95 6.0866604
0.163 5.7789998 -1.955 6.1029038
0.145 5.7779999 -1.955 6.1015029
0.127 5.776 -1.954 6.0988865
0.1 5.7880001 -1.9579999 6.1110315
0.081 5.7789998 -1.955 6.1012645
0.063000001 5.777 -1.954 6.0988369
0.045000002 5.783 -1.956 6.1050019
0.027000001 5.7909999 -1.959 6.1134353
-0 5.8060002 -1.964 6.1291871
-0.017999999 5.8130002 -1.967 6.136806
-0.037 5.7979999 -1.961 6.120759
-0.055 5.8109999 -1.966 6.1348104
-0.072999999 5.8179998 -1.969 6.14259
-0.101 5.829 -1.973 6.1546869
-0.119 5.8080001 -1.965 6.1325564
-0.13699999 5.802 -1.9630001 6.1266093
-0.155 5.809 -1.966 6.1346278
-0.17399999 5.829 -1.974 6.1566381
-0.20100001 5.8169999 -1.969 6.1444974
-0.22 5.8340001 -1.976 6.1634836
-0.23800001 5.829 -1.974 6.1587791
-0.25600001 5.8189998 -1.971 6.149076
-0.29300001 5.8299999 -1.976 6.1627369
-0.303 5.835 -1.978 6.168591
-0.32100001 5.8379998 -1.979 6.1726594
-0.33899999 5.8330002 -1.978 6.1685734
-0.35800001 5.842 -1.9809999 6.1791172
-0.39500001 5.8449998 -1.983 6.1848474
-0.414 5.8509998 -1.9859999 6.1927204
-0.42399999 5.8660002 -1.9910001 6.2091718
-0.442 5.8569999 -1.988 6.200964
-0.461 5.8569999 -1.989 6.2026677
-0.498 5.8559999 -1.99 6.2049046
-0.51700002 5.8600001 -1.992 6.2108741
-0.52600002 5.8610001 -1.992 6.2125731
-0.54299998 5.8449998 -1.987 6.1973414
-0.58399999 5.882 -2.0020001 6.2407517
-0.60100001 5.869 -1.998 6.2288337
-0.62 5.875 -2.0009999 6.237309
-0.64200002 5.901 -2.0109999 6.2672229
-0.667 5.8709998 -2.0009999 6.2383914
-0.68900001 5.901 -2.013 6.2728534
-0.70499998 5.8769999 -2.0050001 6.2494941
-0.72500002 5.895 -2.0120001 6.2709484
-0.74400002 5.8930001 -2.0120001 6.2712941
-0.76800001 5.8610001 -2.0020001 6.2409253
-0.78799999 5.8660002 -2.0050001 6.249074
-0.80400002 5.8449998 -1.998 6.2291608
-0.82099998 5.8330002 -1.994 6.2188396
-0.83999997 5.836 -1.9960001 6.2248302
-0.86500001 5.8189998 -1.992 6.2110424
-0.88300002 5.8119998 -1.99 6.2063785
-0.898 5.7870002 -1.982 6.1825643
-0.91799998 5.7989998 -1.988 6.1986504
-0.935 5.7870002 -1.984 6.1886878
-0.95099998 5.7709999 -1.98 6.1748877
-0.97799999 5.7649999 -1.979 6.1731796
-0.99400002 5.7470002 -1.974 6.157331
-1.011 5.7360001 -1.971 6.1488748
-1.029 5.7329998 -1.971 6.1490626
-1.046 5.7259998 -1.969 6.1447663
-1.072 5.7150002 -1.967 6.1383634
-1.0880001 5.7010002 -1.9630001 6.1268682
-1.108 5.7090001 -1.967 6.1391726
-1.127 5.711 -1.969 6.1451292
-1.145 5.711 -1.971 6.1490965
-1.1569999 5.6760001 -1.959 6.1150064
-1.184 5.6719999 -1.96 6.1167836
-1.204 5.6760001 -1.9630001 6.1253543
-1.22 5.665 -1.96 6.1173706
-1.24 5.6739998 -1.965 6.1313214
-1.256 5.6589999 -1.961 6.1194229
-1.244 5.4819999 -1.898 5.9331493
-1.265 5.4910002 -1.903 5.9474969
-1.302 5.573 -1.934 6.0410171
-1.335 5.638 -1.96 6.1164427
-1.3559999 5.645 -1.964 6.1287894
-1.3789999 5.6279998 -1.96 6.1169944
-1.398 5.6290002 -1.962 6.1228662
-1.4170001 5.6259999 -1.9630001 6.1247969
-1.432 5.6149998 -1.96 6.1172252
-1.466 5.5999999 -1.9579999 6.1108851
-1.477 5.605 -1.961 6.1190743
-1.4960001 5.6059999 -1.9630001 6.1252446
-1.515 5.6059999 -1.965 6.1305532
-1.534 5.6069999 -1.967 6.1368308
-1.566 5.585 -1.962 6.1232367
-1.584 5.5819998 -1.9630001 6.1254511
-1.591 5.5739999 -1.961 6.1193366
-1.61 5.572 -1.962 6.1228037
-1.647 5.5689998 -1.965 6.1308722
-1.6619999 5.5570002 -1.962 6.1230664
-1.681 5.5570002 -1.964 6.1288915
-1.688 5.5489998 -1.962 6.1229234
-1.709 5.5539999 -1.966 6.1345534
-1.743 5.5419998 -1.965 6.132947
-1.761 5.5380001 -1.966 6.1347957
-1.779 5.5339999 -1.967 6.1367002
-1.796 5.527 -1.966 6.1350222
-1.821 5.5149999 -1.965 6.1312714
-1.839 5.513 -1.966 6.1351647
-1.855 5.5029998 -1.965 6.1306815
-1.875 5.5040002 -1.967 6.1383004
-1.888 5.4860001 -1.9630001 6.1248765
-1.919 5.4910002 -1.9680001 6.1405754
-1.9349999 5.4819999 -1.967 6.1372333
-1.948 5.4650002 -1.9630001 6.1248918
-1.967 5.4619999 -1.964 6.1286073
-1.988 5.467 -1.9680001 6.1411119
-2.0150001 5.461 -1.969 6.1448927
-2.0309999 5.4510002 -1.9680001 6.1409597
-2.0510001 5.4530001 -1.971 6.1503377
-2.0639999 5.4359999 -1.967 6.1383448
-2.0810001 5.428 -1.967 6.1370053
-2.1029999 5.4359999 -1.972 6.1531687
-2.1210001 5.4060001 -1.965 6.1306367
-2.142 5.4099998 -1.969 6.1427374
-2.1570001 5.3979998 -1.967 6.136786
-2.174 5.3909998 -1.967 6.136631
-2.198 5.402 -1.974 6.1570678
-2.2060001 5.3720002 -1.965 6.1307464
-2.2360001 5.3740001 -1.969 6.1446347
-2.2460001 5.3509998 -1.9630001 6.1262622
-2.2650001 5.3499999 -1.965 6.1330214
-2.2839999 5.348 -1.967 6.1389618
-2.3 5.3369999 -1.966 6.1350403
-2.326 5.3280001 -1.967 6.1373405
-2.336 5.3070002 -1.961 6.1210022
-2.3540001 5.3010001 -1.962 6.1230192
-2.375 5.3039999 -1.966 6.1349974
-2.391 5.2950001 -1.965 6.1331177
-2.418 5.2880001 -1.967 6.1383023
-2.431 5.2719998 -1.964 6.128706
-2.4449999 5.2600002 -1.962 6.123322
-2.4619999 5.2540002 -1.9630001 6.1253028
-2.4909999 5.2290001 -1.959 6.1143441
-2.4979999 5.2220001 -1.9579999 6.1108961
-2.5090001 5.204 -1.954 6.0987549
-2.5190001 5.1830001 -1.949 6.083375
-2.5409999 5.1859999 -1.9529999 6.0963497
0 0 0 0
0 0 0 0
0 0 0 0
-1.957 3.852 -1.473 4.5648093
-1.946 3.8 -1.454 4.5101032
-1.951 3.7679999 -1.4450001 4.4824381
-1.952 3.74 -1.436 4.4564562
-1.97 3.7460001 -1.4400001 4.4706841
-1.9910001 3.7579999 -1.448 4.4925885
-1.987 3.707 -1.431 4.4427218
-1.9859999 3.678 -1.421 4.414875
-2.007 3.6900001 -1.429 4.4369125
-2.02 3.6849999 -1.429 4.4386559
-2.017 3.652 -1.418 4.4063721
-2.0280001 3.6199999 -1.41 4.3823833
-2.0350001 3.618 -1.411 4.3842983
-2.033 3.589 -1.401 4.3562384
-2.0610001 3.612 -1.413 4.3921332
-2.0639999 3.5650001 -1.399 4.3504624
-2.076 3.5599999 -1.4 4.3523989
-2.079 3.552 -1.398 4.3466482
-2.098 3.5580001 -1.403 4.3622675
-2.108 3.55 -1.402 4.3602486
-2.108 3.5 -1.387 4.3147926
-2.1259999 3.5050001 -1.391 4.3289471
-2.1359999 3.4960001 -1.391 4.3265915
-2.1370001 3.487 -1.388 4.3188519
-2.1670001 3.4860001 -1.393 4.3345747
-2.171 3.4679999 -1.3890001 4.3208318
-2.1800001 3.4579999 -1.387 4.3167038
-2.1949999 3.457 -1.39 4.3244624
-2.2850001 3.585 -1.447 4.490797
-2.3510001 3.6619999 -1.485 4.5981159
-2.348 3.608 -1.467 4.5478411
-2.2950001 3.5039999 -1.425 4.4244399
-2.2839999 3.464 -1.41 4.3822427
-2.2690001 3.418 -1.393 4.332613
-2.28 3.4000001 -1.3890001 4.3229299
-2.283 3.382 -1.3839999 4.3087664
-2.286 3.3640001 -1.38 4.2949615
-2.3069999 3.372 -1.387 4.3146729
-2.3039999 3.3440001 -1.378 4.2883139
-2.3210001 3.335 -1.378 4.290472
-2.339 3.339 -1.383 4.3049426
-2.3329999 3.3080001 -1.373 4.2744455
-2.3510001 3.312 -1.378 4.2889895
-2.3570001 3.2980001 -1.375 4.2805233
-2.375 3.3010001 -1.38 4.2943716
-2.3800001 3.2750001 -1.373 4.2749453
-2.392 3.27 -1.374 4.2781353
-2.402 3.263 -1.374 4.2783933
-2.4000001 3.2390001 -1.3660001 4.2564158
-2.4170001 3.24 -1.3710001 4.2683873
-2.431 3.227 -1.37 4.2661681
-2.447 3.227 -1.373 4.276268
-2.457 3.2190001 -1.373 4.2759724
-2.4489999 3.188 -1.362 4.2445245
-2.4690001 3.194 -1.369 4.2628345
-2.48 3.1760001 -1.3660001 4.2548013
-2.5179999 3.2030001 -1.382 4.3022618
-2.5139999 3.178 -1.374 4.2787566
-2.5380001 3.188 -1.382 4.3028727
-2.5339999 3.1619999 -1.374 4.2787004
-2.566 3.1719999 -1.3839999 4.3082938
-2.5929999 3.184 -1.3940001 4.3364434
-2.6159999 3.1919999 -1.402 4.3586607
-2.691 3.2609999 -1.439 4.4661307
-2.5780001 3.0869999 -1.363 4.2465777
-2.5610001 3.0469999 -1.348 4.2023845
-2.5899999 3.072 -1.362 4.2426791
-2.5869999 3.0480001 -1.354 4.2209229
-2.6129999 3.04 -1.358 4.2324381
-2.631 3.0420001 -1.363 4.2466097
-2.622 3.0120001 -1.353 4.2163534
-2.6389999 3.0220001 -1.36 4.23632
-2.648 3.013 -1.359 4.2352042
-2.658 2.9860001 -1.354 4.2207203
-2.681 2.993 -1.362 4.2427411
-2.6830001 2.9760001 -1.357 4.2304273
-2.6889999 2.974 -1.358 4.2331505
-2.698 2.947 -1.353 4.2183671
-2.71 2.941 -1.355 4.2225118
-2.7219999 2.9349999 -1.3559999 4.2263746
-2.7179999 2.9130001 -1.349 4.2062922
-2.7349999 2.9130001 -1.353 4.2185783
-2.747 2.8989999 -1.353 4.2167311
-2.7620001 2.895 -1.355 4.2244167
-2.7920001 2.908 -1.3660001 4.2564874
-2.7690001 2.8670001 -1.35 4.2082715
-2.799 2.8800001 -1.3609999 4.2404156
-2.813 2.8670001 -1.3609999 4.24087
-2.8210001 2.8559999 -1.36 4.2384405
-2.8310001 2.849 -1.3609999 4.2407174
-2.835 2.835 -1.358 4.2330384
-2.8429999 2.826 -1.358 4.2323856
-2.8599999 2.825 -1.362 4.2444396
-2.8629999 2.8010001 -1.357 4.2289267
-2.9030001 2.822 -1.373 4.2750702
-2.905 2.806 -1.369 4.2646008
-2.9100001 2.793 -1.367 4.2588305
-2.928 2.793 -1.372 4.2727528
-2.9300001 2.7690001 -1.3660001 4.2565498
-2.9460001 2.766 -1.37 4.2669163
-2.954 2.757 -1.37 4.2666221
-2.9590001 2.744 -1.368 4.2610612
-2.977 2.743 -1.373 4.2745419
-2.993 2.7320001 -1.374 4.2789893
-2.9860001 2.7079999 -1.3660001 4.2562208
-3.007 2.71 -1.373 4.2744918
-3.007 2.6930001 -1.369 4.2624474
-3.0309999 2.697 -1.376 4.284174
-3.027 2.677 -1.37 4.2668438
-3.0439999 2.6659999 -1.372 4.2726893
-3.0439999 2.6489999 -1.368 4.2608171
-3.052 2.6400001 -1.368 4.2609539
-3.0699999 2.6389999 -1.373 4.2748508
-3.0899999 2.6389999 -1.378 4.2908397
-3.092 2.6159999 -1.373 4.2765698
-3.092 2.599 -1.369 4.2649064
-3.1059999 2.5940001 -1.372 4.2729912
-3.1199999 2.589 -1.375 4.2811151
-3.1329999 2.5669999 -1.373 4.2767167
-3.1459999 2.569 -1.378 4.2890511
-3.1429999 2.5510001 -1.373 4.2744803
-3.1470001 2.5369999 -1.3710001 4.2684445
-3.1760001 2.5439999 -1.38 4.2968955
-3.184 2.5179999 -1.377 4.2865267
-3.197 2.52 -1.381 4.2986474
-3.1960001 2.503 -1.377 4.2866716
-3.2130001 2.5 -1.381 4.2988987
-3.2179999 2.487 -1.38 4.294775
-3.2390001 2.4719999 -1.382 4.3025374
-3.2509999 2.4649999 -1.3839999 4.3082108
-3.2550001 2.46 -1.3839999 4.3083735
-3.277 2.46 -1.391 4.3272634
-3.283 2.4319999 -1.387 4.314682
-3.3039999 2.4319999 -1.393 4.3326077
-3.3010001 2.414 -1.388 4.3186274
-3.3110001 2.4130001 -1.391 4.3266816
-3.3310001 2.411 -1.396 4.3424993
-3.3429999 2.388 -1.395 4.3386884
-3.3469999 2.375 -1.393 4.3339915
-3.3559999 2.3659999 -1.3940001 4.3363495
-3.365 2.3640001 -1.396 4.3428721
-3.3959999 2.3540001 -1.404 4.3640976
-3.3929999 2.336 -1.399 4.3504648
-3.4130001 2.3340001 -1.404 4.3666167
-3.4200001 2.323 -1.404 4.3662276
-3.4300001 2.3150001 -1.406 4.3704648
-3.4519999 2.306 -1.411 4.3846164
-3.45 2.289 -1.4069999 4.3728333
-3.47 2.286 -1.4119999 4.3886719
-3.4719999 2.2720001 -1.41 4.3823357
-3.4890001 2.267 -1.414 4.3945198
-3.5150001 2.2609999 -1.421 4.4143615
-3.507 2.24 -1.414 4.3950024
-3.5309999 2.24 -1.4220001 4.4167461
-3.53 2.224 -1.418 4.4065633
-3.5469999 2.2179999 -1.4220001 4.4184632
-3.5409999 2.1989999 -1.4170001 4.4025187
-3.562 2.1889999 -1.4220001 4.4160671
-3.592 2.1919999 -1.431 4.4446697
-3.589 2.175 -1.427 4.4325924
-3.5880001 2.1589999 -1.424 4.4229856
-3.6040001 2.1530001 -1.428 4.4343443
-3.6159999 2.1370001 -1.429 4.4366956
-3.6370001 2.1340001 -1.4349999 4.4543185
-3.654 2.128 -1.439 4.4666343
-3.651 2.1110001 -1.4349999 4.454812
-3.6619999 2.1029999 -1.437 4.4606977
-3.6689999 2.0829999 -1.436 4.4567413
-3.6960001 2.0840001 -1.4450001 4.4823542
-3.6900001 2.0650001 -1.439 4.4666595
-3.7049999 2.0580001 -1.443 4.4771237
-3.711 2.046 -1.443 4.476593
-3.7390001 2.046 -1.451 4.5024033
-3.753 2.0309999 -1.454 4.5082245
-3.7709999 2.0250001 -1.4579999 4.5218172
-3.763 2.006 -1.452 4.5047207
-3.777 1.998 -1.456 4.514163
-3.8099999 2 -1.467 4.5462279
-3.803 1.974 -1.46 4.5267076
-3.8310001 1.973 -1.469 4.5527191
-3.8340001 1.959 -1.467 4.548552
-3.8499999 1.952 -1.472 4.5606565
-3.8840001 1.938 -1.4809999 4.5863562
-3.8800001 1.929 -1.478 4.5782013
-3.888 1.918 -1.478 4.5803657
-3.9059999 1.911 -1.483 4.5943494
-3.895 1.891 -1.476 4.5744381
-3.927 1.876 -1.485 4.5984707
-3.9419999 1.875 -1.49 4.6124926
-3.96 1.868 -1.494 4.6263442
-3.944 1.846 -1.485 4.6008778
-3.9579999 1.837 -1.489 4.6105804
-3.9779999 1.816 -1.492 4.6204333
-4.0040002 1.813 -1.501 4.6445651
-4.0050001 1.806 -1.5 4.6423769
-4.0180001 1.796 -1.503 4.6506934
-4.046 1.778 -1.51 4.6702781
-4.0409999 1.761 -1.505 4.6578779
-4.0419998 1.7460001 -1.503 4.6524496
-4.053 1.744 -1.507 4.6625524
-4.0450001 1.725 -1.501 4.6465745
-4.1269999 1.729 -1.53 4.7288971
-4.0970001 1.702 -1.516 4.6883335
-4.099 1.687 -1.5140001 4.6840119
-4.1420002 1.697 -1.53 4.7304201
-4.145 1.668 -1.528 4.7220793
-4.1440001 1.653 -1.525 4.714952
-4.177 1.65 -1.536 4.7464857
-4.1929998 1.641 -1.54 4.7587528
-4.191 1.626 -1.5369999 4.7508659
-4.1890001 1.602 -1.534 4.7399664
-4.2160001 1.597 -1.5420001 4.7647486
-4.2010002 1.577 -1.534 4.7422028
-4.2059999 1.564 -1.534 4.7423296
0 0 0 0
0 0 0 0
0 0 0 0
0 0 0 0
0 0 0 0
0 0 0 0
0 0 0 0
0 0 0 0
0 0 0 0
0 0 0 0
0 0 0 0
0 0 0 0
0 0 0 0
0 0 0 0
0 0 0 0
0 0 0 0
0 0 0 0
0 0 0 0
0 0 0 0
0 0 0 0
0 0 0 0
0 0 0 0
0 0 0 0
0 0 0 0
0 0 0 0
0 0 0 0
0 0 0 0
0 0 0 0
0 0 0 0
0 0 0 0
0 0 0 0
0 0 0 0
0 0 0 0
0 0 0 0
0 0 0 0
0 0 0 0
0 0 0 0
0 0 0 0
0 0 0 0
0 0 0 0
0 0 0 0
0 0 0 0
0 0 0 0
0 0 0 0
0 0 0 0
0 0 0 0
0 0 0 0
0 0 0 0
0 0 0 0
0 0 0 0
0 0 0 0
0 0 0 0
0 0 0 0
0 0 0 0
0 0 0 0
0 0 0 0
0 0 0 0
0 0 0 0
0 0 0 0
0 0 0 0
0 0 0 0
0 0 0 0
0 0 0 0
0 0 0 0
0 0 0 0
0 0 0 0
0 0 0 0
0 0 0 0
0 0 0 0
0 0 0 0
0 0 0 0
0 0 0 0
0 0 0 0
0 0 0 0
0 0 0 0
0 0 0 0
0 0 0 0
0 0 0 0
0 0 0 0
0 0 0 0
0 0 0 0
0 0 0 0
0 0 0 0
0 0 0 0
0 0 0 0
0 0 0 0
0 0 0 0
0 0 0 0
0 0 0 0
0 0 0 0
0 0 0 0
0 0 0 0
0 0 0 0
0 0 0 0
0 0 0 0
0 0 0 0
0 0 0 0
0 0 0 0
0 0 0 0
0 0 0 0
0 0 0 0
0 0 0 0
0 0 0 0
0 0 0 0
0 0 0 0
0 0 0 0
0 0 0 0
0 0 0 0
0 0 0 0
0 0 0 0
0 0 0 0
0 0 0 0
0 0 0 0
0 0 0 0
0 0 0 0
0 0 0 0
0 0 0 0
0 0 0 0
0 0 0 0
0 0 0 0
0 0 0 0
0 0 0 0
0 0 0 0
0 0 0 0
0 0 0 0
0 0 0 0
0 0 0 0
0 0 0 0
0 0 0 0
0 0 0 0
0 0 0 0
0 0 0 0
0 0 0 0
0 0 0 0
0 0 0 0
0 0 0 0
0 0 0 0
0 0 0 0
0 0 0 0
0 0 0 0
0 0 0 0
0 0 0 0
0 0 0 0
0 0 0 0
0 0 0 0
0 0 0 0
0 0 0 0
0 0 0 0
0 0 0 0
0 0 0 0
0 0 0 0
0 0 0 0
0 0 0 0
0 0 0 0
0 0 0 0
0 0 0 0
0 0 0 0
0 0 0 0
0 0 0 0
0 0 0 0
0 0 0 0
0 0 0 0
0 0 0 0
0 0 0 0
0 0 0 0
0 0 0 0
0 0 0 0
0 0 0 0
0 0 0 0
0 0 0 0
0 0 0 0
-5.4089999 -1.351 -1.836 5.8697
-5.3889999 -1.364 -1.83 5.8524113
-5.3709998 -1.386 -1.826 5.8397698
-5.3410001 -1.396 -1.816 5.81145
-5.3299999 -1.411 -1.814 5.8043447
-5.316 -1.425 -1.811 5.7939796
-5.3099999 -1.442 -1.8099999 5.7923713
-5.3179998 -1.462 -1.814 5.8059592
-5.3109999 -1.487 -1.814 5.8059011
-5.303 -1.503 -1.813 5.8023949
-5.2779999 -1.513 -1.806 5.779973
-5.2789998 -1.5319999 -1.808 5.7865124
-5.2740002 -1.548 -1.808 5.7862115
-5.2740002 -1.575 -1.811 5.7944303
-5.2540002 -1.587 -1.8049999 5.7776394
-5.2550001 -1.6059999 -1.807 5.7844195
-5.2480001 -1.6210001 -1.807 5.782248
-5.2350001 -1.636 -1.804 5.7737455
-5.217 -1.6569999 -1.8 5.7621818
-5.2329998 -1.6799999 -1.808 5.7858062
0 0 0 0
0 0 0 0
0 0 0 0
0 0 0 0
0 0 0 0
0 0 0 0
0 0 0 0
0 0 0 0
0 0 0 0
0 0 0 0
0 0 0 0
0 0 0 0
0 0 0 0
0 0 0 0
0 0 0 0
0 0 0 0
0 0 0 0
0 0 0 0
0 0 0 0
0 0 0 0
0 0 0 0
-5.0500002 -2.0710001 -1.795 5.7457438
-5.0419998 -2.086 -1.794 5.7438312
-5.02 -2.095 -1.788 5.7259383
-5.0229998 -2.1059999 -1.791 5.7335367
-5.0120001 -2.1199999 -1.789 5.7284431
-5.0100002 -2.138 -1.791 5.7340059
-4.993 -2.168 -1.789 5.7298164
-4.9780002 -2.1800001 -1.786 5.7203746
-4.974 -2.197 -1.7869999 5.7237096
-4.9710002 -2.2049999 -1.7869999 5.7241797
-4.9569998 -2.2360001 -1.7869999 5.7240644
-4.948 -2.2509999 -1.7869999 5.722156
-4.9439998 -2.2679999 -1.788 5.7257228
-4.9239998 -2.277 -1.783 5.7104812
-4.9299998 -2.289 -1.7869999 5.7216945
-4.914 -2.319 -1.786 5.7196989
-4.908 -2.336 -1.7869999 5.7217765
-4.8860002 -2.3440001 -1.781 5.7043223
-4.882 -2.3610001 -1.7819999 5.7082195
-4.8790002 -2.388 -1.785 5.7178154
-4.8579998 -2.3959999 -1.78 5.7016993
-4.8540001 -2.4130001 -1.781 5.7057734
-4.8449998 -2.428 -1.781 5.7044868
-4.8340001 -2.441 -1.779 5.7000771
-4.8200002 -2.4630001 -1.779 5.6976848
-4.8179998 -2.4809999 -1.781 5.7044234
-4.8010001 -2.4920001 -1.777 5.6936278
-4.7940001 -2.507 -1.777 5.6943145
-4.7989998 -2.529 -1.783 5.7101078
-4.776 -2.536 -1.777 5.6920295
-4.7670002 -2.5599999 -1.778 5.69554
-4.7509999 -2.5710001 -1.775 5.686182
-4.7610002 -2.595 -1.7819999 5.7075973
-4.7480001 -2.608 -1.78 5.7020669
-4.7360001 -2.6210001 -1.779 5.6977348
-4.7319999 -2.648 -1.7819999 5.7078238
-4.724 -2.6630001 -1.7819999 5.7081757
-4.7090001 -2.674 -1.779 5.6999826
-4.7069998 -2.6919999 -1.7819999 5.7077346
-4.7080002 -2.7130001 -1.786 5.7197404
-4.684 -2.7279999 -1.781 5.7055941
-4.6680002 -2.7379999 -1.778 5.6963282
-4.6719999 -2.76 -1.783 5.7117662
-4.6570001 -2.7709999 -1.781 5.7042136
-4.6430001 -2.783 -1.779 5.6980157
-4.631 -2.7950001 -1.777 5.6934977
-4.6199999 -2.8180001 -1.778 5.6962099
-4.6170001 -2.8369999 -1.781 5.7041407
-4.6100001 -2.852 -1.781 5.7059588
-4.5960002 -2.8640001 -1.779 5.7000484
-4.5809999 -2.8740001 -1.777 5.6923776
-4.5760002 -2.902 -1.781 5.7038007
-4.5710001 -2.918 -1.7819999 5.7082648
-4.5599999 -2.931 -1.781 5.7058148
-4.546 -2.9430001 -1.779 5.7001934
-4.527 -2.961 -1.777 5.6937666
-4.5190001 -2.9760001 -1.778 5.6955442
-4.5300002 -3.0039999 -1.7869999 5.7217379
-4.4990001 -3.003 -1.777 5.6935701
-4.4970002 -3.023 -1.781 5.7038145
-4.467 -3.0439999 -1.776 5.6898332
-4.4720001 -3.0569999 -1.78 5.7019672
-4.4689999 -3.075 -1.783 5.7102256
-4.4369998 -3.0739999 -1.773 5.6815467
-4.4359999 -3.115 -1.781 5.7055483
-4.414 -3.1199999 -1.776 5.6896372
-4.4029999 -3.1229999 -1.773 5.681819
-4.4060001 -3.145 -1.779 5.6981316
-4.388 -3.154 -1.775 5.6879592
-4.3730001 -3.1849999 -1.777 5.6943026
-4.3540001 -3.1919999 -1.773 5.6824036
-4.3429999 -3.2049999 -1.773 5.681303
-4.348 -3.2190001 -1.777 5.6942773
-4.3169999 -3.2379999 -1.773 5.6801991
-4.3109999 -3.2550001 -1.775 5.6859803
-4.296 -3.2650001 -1.773 5.6797333
-4.2839999 -3.2780001 -1.772 5.677845
-4.2870002 -3.29 -1.775 5.6879778
-4.2529998 -3.306 -1.7690001 5.6698327
-4.2600002 -3.3340001 -1.777 5.6939344
-4.23 -3.332 -1.7690001 5.6678467
-4.2210002 -3.346 -1.7690001 5.6693845
-4.2010002 -3.3629999 -1.768 5.6642737
-4.1880002 -3.3729999 -1.766 5.6599674
-4.1939998 -3.401 -1.774 5.6836181
-4.1690001 -3.402 -1.768 5.6639199
-4.1599998 -3.4159999 -1.768 5.6657286
-4.1479998 -3.4400001 -1.77 5.6720719
-4.1300001 -3.447 -1.767 5.6622429
-4.132 -3.47 -1.773 5.6795993
-4.1110001 -3.4749999 -1.768 5.6658421
-4.0999999 -3.4879999 -1.768 5.6658597
-4.098 -3.5079999 -1.772 5.6779971
-4.073 -3.52 -1.768 5.6661763
-4.0669999 -3.5380001 -1.771 5.6740088
-4.0510001 -3.5450001 -1.768 5.6659908
-4.0339999 -3.553 -1.766 5.6582437
-4.0300002 -3.572 -1.7690001 5.6682844
-4.006 -3.585 -1.766 5.658535
-4.0040002 -3.6059999 -1.77 5.6716976
-3.98 -3.6070001 -1.7640001 5.6535425
-3.9749999 -3.625 -1.767 5.6624675
-3.9630001 -3.6370001 -1.767 5.6617513
-3.947 -3.6570001 -1.768 5.6637692
-3.9300001 -3.664 -1.765 5.65553
-3.9170001 -3.675 -1.7640001 5.653336
-3.9170001 -3.698 -1.7690001 5.6698723
-3.905 -3.71 -1.7690001 5.6694345
-3.898 -3.727 -1.771 5.6763873
-3.8889999 -3.7539999 -1.776 5.6895533
-3.888 -3.777 -1.781 5.7056317
-3.8770001 -3.789 -1.781 5.7061028
-3.8659999 -3.803 -1.7819999 5.7082648
-3.8570001 -3.8169999 -1.783 5.711832
-3.832 -3.829 -1.78 5.7020926
-3.8280001 -3.849 -1.784 5.7141089
-3.803 -3.8469999 -1.777 5.6938515
-3.701 -3.767 -1.732 5.5576534
-3.609 -3.72 -1.698 5.4540339
-3.605 -3.727 -1.699 5.4564781
-3.5840001 -3.7290001 -1.694 5.4424381
-3.579 -3.747 -1.697 5.452436
-3.5510001 -3.7650001 -1.6950001 5.4459023
-3.529 -3.7650001 -1.6900001 5.4300246
-3.47 -3.7119999 -1.704 5.359427
-3.4660001 -3.7309999 -1.7079999 5.3712921
-3.493 -3.786 -1.687 5.4204073
-3.4330001 -3.7539999 -1.706 5.3654861
-3.4089999 -3.7520001 -1.7 5.346848
-3.4030001 -3.7679999 -1.7029999 5.3552256
-3.4349999 -3.8299999 -1.6849999 5.4136262
-3.4100001 -3.8499999 -1.684 5.411696
-3.3510001 -3.7939999 -1.697 5.3388619
-3.339 -3.8050001 -1.697 5.3391719
-3.332 -3.8210001 -1.7 5.3471737
-3.299 -3.819 -1.692 5.3226895
-3.2980001 -3.8429999 -1.698 5.3412223
-3.28 -3.846 -1.6950001 5.331336
-3.2720001 -3.8599999 -1.697 5.3371706
-3.257 -3.868 -1.6950001 5.3331509
-3.2349999 -3.8789999 -1.693 5.3271112
0 0 0 0
-3.207 -3.895 -1.691 5.3212175
-3.1889999 -3.8970001 -1.688 5.3109016
-3.1670001 -3.9200001 -1.689 5.3149796
-3.1459999 -3.9200001 -1.684 5.3009028
0 0 0 0
-3.1329999 -3.9419999 -1.688 5.310781
-3.1210001 -3.9519999 -1.688 5.3111477
-3.0869999 -3.96 -1.682 5.2953086
-3.0710001 -3.9649999 -1.6799999 5.2891083
-3.0739999 -3.9820001 -1.686 5.3055062
-3.066 -3.997 -1.688 5.3127875
-3.036 -4.0100002 -1.686 5.3047142
-3.03 -4.0289998 -1.6900001 5.3169389
-3.0009999 -4.0159998 -1.6799999 5.287405
-2.9949999 -4.0339999 -1.684 5.2989655
-2.993 -4.0450001 -1.686 5.3068514
-2.9619999 -4.0560002 -1.683 5.2968926
-2.951 -4.0689998 -1.684 5.3010392
-2.9319999 -4.0689998 -1.6799999 5.2892137
-2.914 -4.0700002 -1.677 5.2790742
-2.892 -4.0809999 -1.676 5.2751489
-2.882 -4.0929999 -1.677 5.2792897
-2.868 -4.0999999 -1.676 5.2767792
-2.848 -4.0999999 -1.6720001 5.2646642
-2.8329999 -4.1059999 -1.671 5.2609282
-2.8110001 -4.1149998 -1.669 5.2555213
-2.793 -4.1170001 -1.666 5.2465315
-2.7820001 -4.1279998 -1.6670001 5.2496471
-2.7590001 -4.1220002 -1.661 5.2308593
-2.747 -4.1329999 -1.661 5.2332225
-2.75 -4.165 -1.6720001 5.2635832
-2.7130001 -4.151 -1.66 5.229414
-2.7030001 -4.164 -1.6619999 5.2352028
-2.6849999 -4.1659999 -1.659 5.2265725
-2.674 -4.178 -1.661 5.2311454
-2.664 -4.191 -1.663 5.2370744
-2.625 -4.1729999 -1.65 5.1987548
-2.6240001 -4.2010002 -1.658 5.2232885
-2.5999999 -4.191 -1.651 5.2009888
-2.5810001 -4.1900001 -1.647 5.1894383
-2.5680001 -4.198 -1.647 5.1894541
-2.54 -4.197 -1.641 5.1729383
-2.5350001 -4.2179999 -1.647 5.1894469
-2.5139999 -4.2129998 -1.641 5.173243
-2.506 -4.2309999 -1.645 5.185308
-2.4920001 -4.237 -1.645 5.1834598
-2.46 -4.2290001 -1.636 5.1587343
-2.4530001 -4.2459998 -1.641 5.1709385
-2.4260001 -4.2309999 -1.631 5.1426644
-2.4130001 -4.2389998 -1.631 5.1431365
-2.4030001 -4.2529998 -1.6339999 5.1509585
-2.3789999 -4.256 -1.63 5.1410193
-2.359 -4.2519999 -1.626 5.1272078
-2.342 -4.2529998 -1.623 5.119287
-2.3410001 -4.283 -1.632 5.1466293
-2.322 -4.2810001 -1.628 5.1350784
-2.2980001 -4.2680001 -1.62 5.1108732
-2.28 -4.2820001 -1.622 5.1151547
-2.27 -4.296 -1.624 5.1230745
-2.2479999 -4.2880001 -1.618 5.1047401
-2.234 -4.2940001 -1.618 5.1036377
-2.2090001 -4.296 -1.614 5.0931611
-2.1960001 -4.303 -1.614 5.0934486
-2.1860001 -4.316 -1.617 5.1010923
-2.1700001 -4.3200002 -1.6160001 5.0973287
-2.1589999 -4.3319998 -1.618 5.1034718
-2.1340001 -4.3319998 -1.614 5.0916772
-2.119 -4.3369999 -1.613 5.0893512
-2.112 -4.355 -1.618 5.1033807
-2.099 -4.3629999 -1.618 5.1048498
-2.0699999 -4.375 -1.618 5.1032782
-2.0580001 -4.3850002 -1.619 5.1073236
-2.043 -4.3709998 -1.612 5.0870452
-2.0220001 -4.362 -1.6059999 5.0690002
-2.0039999 -4.395 -1.614 5.0928416
-1.9809999 -4.381 -1.6059999 5.0691967
-1.965 -4.382 -1.604 5.0631971
-1.961 -4.3920002 -1.607 5.0712557
-1.9450001 -4.3930001 -1.605 5.0653234
-1.9170001 -4.4029999 -1.604 5.063014
-1.9069999 -4.4200001 -1.608 5.075304
-1.885 -4.4050002 -1.6 5.0514603
-1.8710001 -4.4109998 -1.6 5.0514908
-1.8559999 -4.4330001 -1.605 5.0667791
-1.835 -4.4219999 -1.599 5.0475845
-1.822 -4.4310002 -1.6 5.0510836
-1.803 -4.4250002 -1.595 5.0374064
-1.794 -4.441 -1.599 5.0495262
-1.779 -4.4260001 -1.5930001 5.0291119
-1.755 -4.4460001 -1.596 5.0392618
-1.739 -4.4460001 -1.594 5.0330777
-1.724 -4.4499998 -1.5930001 5.0311356
-1.7130001 -4.4619999 -1.596 5.0389509
-1.684 -4.4489999 -1.5880001 5.0150971
-1.674 -4.4650002 -1.592 5.0272226
-1.661 -4.474 -1.5930001 5.0312271
-1.648 -4.4809999 -1.594 5.0334978
-1.632 -4.48 -1.592 5.0267572
-1.603 -4.467 -1.584 5.0032744
-1.59 -4.4749999 -1.585 5.0065904
-1.572 -4.4679999 -1.58 4.9930558
-1.561 -4.4840002 -1.584 5.0052009
-1.545 -4.4829998 -1.582 4.9987035
-1.521 -4.46 -1.572 4.9675169
-1.4910001 -4.4380002 -1.561 4.9351439
-1.476 -4.441 -1.5599999 4.9330168
-1.4400001 -4.3800001 -1.535 4.859447
-1.429 -4.3909998 -1.538 4.8670697
-1.4 -4.349 -1.52 4.8149972
-1.3660001 -4.316 -1.505 4.7706223
-1.352 -4.3189998 -1.505 4.7693486
-1.3200001 -4.2639999 -1.483 4.7035503
-1.304 -4.2610002 -1.48 4.6954169
-1.283 -4.2399998 -1.47 4.6673961
-1.2539999 -4.217 -1.46 4.6354294
-1.2410001 -4.2189999 -1.459 4.6334352
-1.21 -4.165 -1.437 4.5690584
-1.2029999 -4.191 -1.4450001 4.5934429
-1.173 -4.1350002 -1.423 4.5275912
-1.146 -4.1129999 -1.413 4.4974051
-1.132 -4.1149998 -1.4119999 4.4953742
-1.114 -4.0999999 -1.406 4.4752464
-1.0880001 -4.0560002 -1.388 4.4228301
-1.073 -4.0489998 -1.3839999 4.4114833
-1.063 -4.0650001 -1.3890001 4.4253263
-1.029 -4.0139999 -1.368 4.3637667
-1.013 -4.0040002 -1.363 4.3492475
-1 -4.0050001 -1.362 4.3468461
-0.972 -3.9449999 -1.339 4.277935
-0.963 -3.964 -1.345 4.29531
-0.926 -3.892 -1.316 4.2115312
-0.91500002 -3.898 -1.318 4.2153001
-0.90799999 -3.925 -1.326 4.2412691
-0.88099998 -3.865 -1.304 4.1731048
-0.87300003 -3.8870001 -1.3099999 4.1936855
-0.86500001 -3.908 -1.317 4.2136893
-0.84399998 -3.8989999 -1.312 4.1995096
-0.83200002 -3.905 -1.314 4.2033134
-0.81800002 -3.9000001 -1.311 4.1949787
-0.80699998 -3.908 -1.313 4.2009144
-0.78899997 -3.914 -1.314 4.203393
-0.77700001 -3.9159999 -1.314 4.2030206
-0.76700002 -3.9319999 -1.318 4.2173495
-0.755 -3.9360001 -1.319 4.2192278
-0.74900001 -3.97 -1.331 4.2536411
-0.72799999 -3.9590001 -1.325 4.2378407
-0.71600002 -3.964 -1.326 4.2407818
-0.68699998 -3.878 -1.294 4.1455145
-0.65499997 -3.773 -1.255 4.0298362
-0.63599998 -3.734 -1.24 3.9855804
-0.625 -3.7379999 -1.2410001 3.9879003
-0.60500002 -3.7290001 -1.237 3.9751272
-0.59399998 -3.7309999 -1.237 3.9753447
-0.60399997 -3.8710001 -1.2869999 4.1238117
-0.597 -3.902 -1.2970001 4.1550241
-0.57599998 -3.8859999 -1.291 4.135148
-0.57499999 -3.9660001 -1.319 4.2189503
-0.56 -3.951 -1.313 4.2009487
-0.54699999 -3.948 -1.311 4.1957874
-0.514 -3.8889999 -1.289 4.1291695
-0.52399999 -4.053 -1.347 4.3029985
-0.51099998 -4.0089998 -1.331 4.2549691
-0.49599999 -3.994 -1.325 4.2371778
-0.47099999 -3.8929999 -1.288 4.1274972
-0.505 -4.3759999 -1.462 4.6413193
-0.472 -4.217 -1.403 4.4692597
-0.42699999 -3.8870001 -1.284 4.1157932
-0.44999999 -4.3200002 -1.439 4.5755458
-0.44400001 -4.3920002 -1.465 4.6511316
-0.43099999 -4.4050002 -1.469 4.6634479
-0.41600001 -4.3969998 -1.466 4.6535811
-0.38999999 -4.3439999 -1.446 4.5949264
-0.37400001 -4.3169999 -1.436 4.5649161
-0.34 -4.086 -1.352 4.3172793
-0.33199999 -4.145 -1.373 4.3790841
-0.333 -4.3169999 -1.4349999 4.5614257
-0.32100001 -4.3330002 -1.4400001 4.5772843
-0.30199999 -4.355 -1.447 4.5990257
-0.28999999 -4.382 -1.457 4.6269722
-0.27599999 -4.3790002 -1.455 4.6226444
-0.26100001 -4.3629999 -1.449 4.6047249
-0.24600001 -4.3379998 -1.4400001 4.5773749
-0.219 -4.2360001 -1.403 4.467669
-0.20900001 -4.283 -1.42 4.5170975
-0.198 -4.3369999 -1.439 4.5737834
-0.186 -4.3649998 -1.449 4.6029797
-0.17299999 -4.3850002 -1.455 4.6233301
-0.15000001 -4.3309999 -1.436 4.565321
-0.13699999 -4.348 -1.442 4.5829287
-0.123 -4.3340001 -1.437 4.5676751
-0.103 -4.1479998 -1.37 4.3696008
-0.082000002 -3.8699999 -1.27 4.0738831
0 0 0 0
0 0 0 0
-0.045000002 -4.1999998 -1.388 4.4236374
-0.035 -4.3730001 -1.45 4.6072612
-0.021 -4.3639998 -1.447 4.5976892
-0.001 -3.1040001 -1.025 3.2688594
0.0089999996 -3.102 -1.024 3.266659
0.017999999 -3.059 -1.008 3.220849
0.027000001 -3.0309999 -0.99800003 3.19119
0.039999999 -2.961 -0.972 3.1167138
0.048999999 -2.957 -0.97100002 3.1127305
0.057999998 -2.9519999 -0.96899998 3.1075115
0.075000003 -2.902 -0.95099998 3.0547717
0.083999999 -2.9059999 -0.95200002 3.0591168
0.089000002 -2.9100001 -0.954 3.0636804
0.098999999 -2.924 -0.95899999 3.0788403
0.107 -2.901 -0.95099998 3.054775
0.126 -2.927 -0.96100003 3.083298
0.13600001 -2.928 -0.96100003 3.084672
0.145 -2.928 -0.96100003 3.0850818
0.152 -2.971 -0.977 3.1312096
0.161 -2.967 -0.97600001 3.1275527
0.184 -3.033 -1.001 3.1992102
0.19599999 -3.0599999 -1.011 3.2286432
0 0 0 0
0.30199999 -4.2550001 -1.4119999 4.4933257
0.31200001 -4.309 -1.431 4.5511084
0.31999999 -4.2249999 -1.401 4.4627151
0.33899999 -4.3010001 -1.429 4.5448394
0.36899999 -4.342 -1.4450001 4.5909858
0.37099999 -4.1989999 -1.393 4.4395595
0 0 0 0
0.40099999 -4.3109999 -1.4349999 4.5612221
0.419 -4.211 -1.399 4.4570489
0.44299999 -4.3239999 -1.441 4.5792689
0 0 0 0
0 0 0 0
0 0 0 0
0.414 -3.527 -1.189 3.744976
0 0 0 0
0 0 0 0
0 0 0 0
0 0 0 0
0 0 0 0
0 0 0 0
0 0 0 0
0 0 0 0
0 0 0 0
0 0 0 0
0.54500002 -3.4990001 -1.186 3.7345178
0.55599999 -3.494 -1.1849999 3.7311387
0.56400001 -3.5079999 -1.1900001 3.7470336
0 0 0 0
0 0 0 0
0 0 0 0
0 0 0 0
0 0 0 0
0 0 0 0
0 0 0 0
0 0 0 0
0 0 0 0
0 0 0 0
0 0 0 0
0 0 0 0
0 0 0 0
0 0 0 0
0 0 0 0
0 0 0 0
0 0 0 0
0 0 0 0
0 0 0 0
0 0 0 0
0 0 0 0
0 0 0 0
0 0 0 0
0 0 0 0
0 0 0 0
0 0 0 0
0 0 0 0
0 0 0 0
0 0 0 0
0 0 0 0
0 0 0 0
0 0 0 0
0 0 0 0
0 0 0 0
0 0 0 0
0 0 0 0
0 0 0 0
0 0 0 0
0 0 0 0
0 0 0 0
0 0 0 0
0 0 0 0
0 0 0 0
0 0 0 0
0 0 0 0
0 0 0 0
0 0 0 0
0 0 0 0
0 0 0 0
0 0 0 0
0 0 0 0
0 0 0 0
0 0 0 0
0 0 0 0
0 0 0 0
0 0 0 0
0 0 0 0
0 0 0 0
0 0 0 0
0 0 0 0
0 0 0 0
0 0 0 0
0 0 0 0
0 0 0 0
0 0 0 0
0 0 0 0
0 0 0 0
0 0 0 0
0 0 0 0
0 0 0 0
0 0 0 0
0 0 0 0
0 0 0 0
0 0 0 0
0 0 0 0
0 0 0 0
0 0 0 0
0 0 0 0
0 0 0 0
0 0 0 0
0 0 0 0
0 0 0 0
0 0 0 0
0 0 0 0
0 0 0 0
0 0 0 0
0 0 0 0
0 0 0 0
0 0 0 0
0 0 0 0
0 0 0 0
0 0 0 0
0 0 0 0
0 0 0 0
0 0 0 0
2.151 -3.99 -1.507 4.776814
2.1860001 -4.0250001 -1.524 4.8271937
2.2019999 -3.993 -1.517 4.8056364
2.211 -3.9960001 -1.52 4.8132043
2.2379999 -4.0139999 -1.53 4.8437319
2.2349999 -3.9790001 -1.518 4.8095727
2.2579999 -3.9909999 -1.526 4.8327341
2.2780001 -3.967 -1.522 4.8210845
2.2909999 -3.977 -1.528 4.8373542
2.3080001 -3.9760001 -1.53 4.8452392
2.3210001 -3.97 -1.531 4.8468447
2.3529999 -3.9690001 -1.5369999 4.8633261
2.358 -3.948 -1.531 4.846734
2.3729999 -3.944 -1.5319999 4.8511119
2.3859999 -3.9530001 -1.538 4.8666878
2.3989999 -3.9170001 -1.529 4.8410673
2.427 -3.9349999 -1.54 4.8730025
2.4400001 -3.9289999 -1.541 4.874969
2.4449999 -3.911 -1.536 4.8614035
2.4630001 -3.9260001 -1.544 4.885057
2.49 -3.914 -1.545 4.8894296
2.516 -3.928 -1.5549999 4.9170585
2.5150001 -3.898 -1.545 4.8894429
2.53 -3.895 -1.5470001 4.8954201
2.546 -3.8800001 -1.546 4.8914857
2.569 -3.8870001 -1.553 4.9112463
2.5810001 -3.8789999 -1.553 4.9112129
2.5799999 -3.852 -1.545 4.8868527
2.608 -3.868 -1.5549999 4.9174294
2.6129999 -3.835 -1.546 4.8913298
2.6300001 -3.835 -1.549 4.9013801
2.645 -3.8310001 -1.551 4.9069529
2.6630001 -3.8299999 -1.5549999 4.9171634
2.6700001 -3.816 -1.552 4.9091206
2.6900001 -3.806 -1.553 4.9125905
2.7019999 -3.7980001 -1.553 4.9129844
2.724 -3.803 -1.5599999 4.9311848
2.7379999 -3.7980001 -1.561 4.9353995
2.7490001 -3.7869999 -1.5599999 4.9327445
2.7739999 -3.7969999 -1.568 4.9569049
2.783 -3.7720001 -1.563 4.9412594
2.799 -3.7690001 -1.566 4.9489512
2.8069999 -3.7539999 -1.563 4.9411268
2.819 -3.7449999 -1.563 4.9411287
2.8399999 -3.75 -1.569 4.9588165
2.8499999 -3.7260001 -1.564 4.9448633
2.882 -3.744 -1.576 4.9806862
2.868 -3.701 -1.561 4.9355392
2.8829999 -3.6960001 -1.563 4.9411612
2.9089999 -3.7060001 -1.572 4.9666791
2.9260001 -3.691 -1.571 4.9651785
2.9489999 -3.697 -1.5779999 4.9854283
2.9489999 -3.6730001 -1.571 4.9654374
2.9660001 -3.671 -1.574 4.9750252
2.98 -3.664 -1.576 4.9788628
2.9990001 -3.652 -1.576 4.9814534
3.02 -3.654 -1.582 4.9974833
3.03 -3.6429999 -1.581 4.9951887
3.0510001 -3.645 -1.587 5.0113068
3.073 -3.648 -1.5930001 5.0288053
3.0810001 -3.622 -1.587 5.0129848
3.0999999 -3.6229999 -1.592 5.0269861
3.118 -3.6199999 -1.595 5.0368986
3.128 -3.609 -1.595 5.0352049
3.1459999 -3.6059999 -1.598 5.0452113
3.1559999 -3.5840001 -1.595 5.0348206
3.181 -3.5899999 -1.602 5.0570016
3.1700001 -3.5550001 -1.59 5.0214567
3.191 -3.556 -1.595 5.0370274
3.217 -3.54 -1.597 5.0429254
3.224 -3.536 -1.598 5.0449061
3.2479999 -3.54 -1.605 5.0652866
3.2539999 -3.5239999 -1.602 5.0570245
3.289 -3.5179999 -1.609 5.0776691
3.2750001 -3.4809999 -1.596 5.0388694
3.2909999 -3.487 -1.601 5.0550027
3.312 -3.487 -1.607 5.0705976
3.3080001 -3.461 -1.599 5.0475922
3.3369999 -3.448 -1.603 5.0590396
3.3440001 -3.4330001 -1.601 5.052824
3.3540001 -3.4219999 -1.6 5.0516729
3.359 -3.4159999 -1.6 5.0509338
3.3800001 -3.395 -1.6 5.0507846
3.402 -3.395 -1.605 5.0671148
3.404 -3.3759999 -1.601 5.0544825
3.4230001 -3.3740001 -1.605 5.0672312
3.4400001 -3.3800001 -1.612 5.0849328
3.4489999 -3.3469999 -1.605 5.0669551
3.4749999 -3.3499999 -1.613 5.0891933
3.4649999 -3.3199999 -1.603 5.0594697
3.477 -3.3099999 -1.603 5.0611496
3.503 -3.3039999 -1.609 5.0770369
3.523 -3.302 -1.614 5.0911422
3.5480001 -3.3050001 -1.6210001 5.1126285
3.5450001 -3.2809999 -1.614 5.0928364
3.5569999 -3.2709999 -1.615 5.0950871
3.5710001 -3.253 -1.614 5.093039
3.5710001 -3.233 -1.609 5.0787015
3.6040001 -3.2420001 -1.62 5.1111426
3.6029999 -3.221 -1.615 5.0955544
3.5999999 -3.198 -1.609 5.0770154
3.7160001 -3.2709999 -1.6569999 5.2205119
3.7279999 -3.2609999 -1.658 5.2231283
3.7479999 -3.2579999 -1.663 5.2371402
3.7609999 -3.2479999 -1.664 5.2405648
3.766 -3.2320001 -1.661 5.2333069
3.7839999 -3.227 -1.666 5.2447824
3.7809999 -3.1930001 -1.6569999 5.2188945
3.7950001 -3.1849999 -1.659 5.2247996
3.8050001 -3.1730001 -1.659 5.2247715
3.8050001 -3.1530001 -1.654 5.2110605
3.809 -3.1359999 -1.651 5.2027664
3.8210001 -3.1159999 -1.65 5.1992307
3.816 -3.092 -1.643 5.1789737
3.8410001 -3.092 -1.65 5.1996388
3.839 -3.0699999 -1.645 5.1835165
3.8540001 -3.063 -1.647 5.1911359
3.868 -3.0439999 -1.647 5.1903725
3.872 -3.0280001 -1.645 5.1833572
3.868 -3.0050001 -1.6390001 5.1650529
3.8759999 -2.9920001 -1.638 5.1631856
3.8959999 -2.9879999 -1.643 5.1774907
3.901 -2.9619999 -1.6390001 5.1650329
3.9189999 -2.957 -1.643 5.1770511
3.9260001 -2.9419999 -1.641 5.173173
3.927 -2.924 -1.638 5.1627655
3.9430001 -2.9159999 -1.641 5.1713815
3.9460001 -2.8900001 -1.636 5.1574717
3.9590001 -2.881 -1.638 5.1630306
3.97 -2.869 -1.6390001 5.165112
3.971 -2.8510001 -1.635 5.1546354
3.984 -2.823 -1.633 5.1486187
4.006 -2.829 -1.641 5.1714754
4.0019999 -2.8080001 -1.635 5.1550064
4.0159998 -2.7980001 -1.637 5.161088
4.0170002 -2.78 -1.6339999 5.1511793
4.0279999 -2.7509999 -1.631 5.1432428
4.0380001 -2.7490001 -1.6339999 5.1509614
4.046 -2.7349999 -1.633 5.1494689
4.0560002 -2.723 -1.6339999 5.1512933
4.0580001 -2.7060001 -1.631 5.1429529
4.0840001 -2.687 -1.635 5.1548281
4.0809999 -2.675 -1.632 5.1452508
4.086 -2.6600001 -1.63 5.1408072
4.1009998 -2.652 -1.633 5.1495624
4.119 -2.6270001 -1.6339999 5.1514316
4.1209998 -2.6099999 -1.631 5.1434326
4.1269999 -2.596 -1.63 5.1408405
4.1269999 -2.586 -1.628 5.1351638
4.1350002 -2.573 -1.628 5.1350694
4.1479998 -2.5450001 -1.627 5.1312823
4.1570001 -2.533 -1.628 5.1329446
4.1570001 -2.5150001 -1.624 5.1228166
4.1630001 -2.51 -1.625 5.1255531
4.1810002 -2.4860001 -1.626 5.1288242
4.1810002 -2.4679999 -1.623 5.1191711
4.1989999 -2.46 -1.627 5.1313086
4.21 -2.4489999 -1.628 5.135376
4.211 -2.4230001 -1.624 5.1225801
4.217 -2.4089999 -1.624 5.1209126
4.2350001 -2.402 -1.628 5.1337328
4.244 -2.3889999 -1.628 5.1350989
4.25 -2.375 -1.628 5.1335669
4.244 -2.346 -1.6210001 5.1130123
4.2600002 -2.3369999 -1.624 5.1231384
4.2639999 -2.322 -1.623 5.1193271
4.2600002 -2.302 -1.618 5.1053629
4.2849998 -2.2980001 -1.626 5.1269779
4.3039999 -2.2909999 -1.63 5.1410112
4.2859998 -2.256 -1.619 5.1069064
4.3179998 -2.256 -1.6289999 5.1369543
4.2820001 -2.2190001 -1.612 5.0850792
4.3039999 -2.214 -1.618 5.1033454
4.3330002 -2.211 -1.626 5.1290631
4.3260002 -2.1819999 -1.62 5.1087961
4.3429999 -2.174 -1.624 5.1210642
4.348 -2.1589999 -1.623 5.1186438
4.3590002 -2.1470001 -1.624 5.1232672
4.3649998 -2.1340001 -1.624 5.1229439
4.3649998 -2.108 -1.62 5.110899
4.3920002 -2.1040001 -1.628 5.1348677
4.3629999 -2.073 -1.614 5.0929456
4.3779998 -2.0639999 -1.618 5.1034207
4.4029999 -2.059 -1.625 5.1250868
4.3959999 -2.03 -1.618 5.1052561
4.4060001 -2.0179999 -1.62 5.1097512
4.4050002 -2.0009999 -1.617 5.1012464
4.428 -1.995 -1.624 5.1209941
4.4330001 -1.98 -1.623 5.1191816
4.4130001 -1.954 -1.613 5.0886593
4.447 -1.944 -1.622 5.117209
4.434 -1.9220001 -1.615 5.0953574
4.448 -1.9119999 -1.618 5.1047401
4.4629998 -1.902 -1.622 5.115355
4.448 -1.87 -1.612 5.0872536
4.473 -1.864 -1.62 5.1094642
4.4720001 -1.847 -1.617 5.101459
4.4759998 -1.8329999 -1.6160001 5.0995998
4.5019999 -1.827 -1.624 5.1228223
4.4860001 -1.796 -1.615 5.094903
4.4990001 -1.785 -1.618 5.1034451
4.4959998 -1.767 -1.614 5.0932603
4.5050001 -1.7539999 -1.6160001 5.097352
4.5089998 -1.723 -1.613 5.0893593
4.507 -1.706 -1.61 5.080904
4.5380001 -1.71 -1.6210001 5.1132364
4.5190001 -1.686 -1.612 5.0855188
4.527 -1.673 -1.613 5.0886564
4.5500002 -1.65 -1.618 5.1032271
4.5539999 -1.635 -1.617 5.1016498
4.5700002 -1.633 -1.622 5.1168814
4.5609999 -1.613 -1.617 5.1008997
4.5679998 -1.599 -1.618 5.1030722
4.5760002 -1.5700001 -1.617 5.1009183
4.5760002 -1.554 -1.615 5.0953822
4.592 -1.552 -1.62 5.1107306
4.5939999 -1.536 -1.619 5.1073761
4.612 -1.51 -1.622 5.1167889
4.6040001 -1.4910001 -1.618 5.1027269
4.5999999 -1.474 -1.614 5.0929041
4.6129999 -1.47 -1.618 5.1047616
4.6230001 -1.457 -1.62 5.1107121
4.6360002 -1.429 -1.622 5.1152148
4.6440001 -1.416 -1.623 5.1191721
4.6300001 -1.396 -1.6160001 5.0987425
4.6339998 -1.3890001 -1.617 5.100781
4.6500001 -1.362 -1.62 5.1090059
4.6469998 -1.345 -1.617 5.1008158
4.6440001 -1.329 -1.614 5.0929337
4.6589999 -1.317 -1.618 5.1047716
4.6620002 -1.294 -1.617 5.1013107
4.6620002 -1.279 -1.6160001 5.0972095
4.6820002 -1.268 -1.622 5.1146684
4.697 -1.257 -1.626 5.1269617
4.678 -1.2359999 -1.617 5.1015754
4.6939998 -1.224 -1.622 5.1149483
4.698 -1.202 -1.6210001 5.1130857
4.7150002 -1.1900001 -1.626 5.1274948
4.7150002 -1.174 -1.624 5.1231709
4.6950002 -1.154 -1.6160001 5.0976658
4.7150002 -1.143 -1.622 5.1155214
4.7090001 -1.118 -1.618 5.103188
4.7249999 -1.1059999 -1.622 5.1166143
4.7160001 -1.0880001 -1.618 5.103168
4.7189999 -1.074 -1.618 5.1029754
4.7280002 -1.0599999 -1.62 5.1090102
4.724 -1.036 -1.6160001 5.0991106
4.7420001 -1.024 -1.622 5.1152735
4.7360001 -1.007 -1.618 5.1050634
4.7519999 -0.995 -1.623 5.1191459
4.7399998 -0.977 -1.618 5.1029453
