# .PCD v0.7 - Point Cloud Data file format
VERSION 0.7
FIELDS x y z intensity
SIZE 4 4 4 4
TYPE F F F F
COUNT 1 1 1 1
WIDTH 1455
HEIGHT 1
VIEWPOINT 0 0 0 1 0 0 0
POINTS 1455
DATA ascii
0 0 0 0
0 0 0 0
0 0 0 0
0 0 0 0
0 0 0 0
0 0 0 0
-8.3549995 0.72299999 -0.78200001 8.4226046
-8.3120003 0.69300002 -0.77700001 8.3769522
0 0 0 0
0 0 0 0
0 0 0 0
0 0 0 0
0 0 0 0
0 0 0 0
0 0 0 0
0 0 0 0
0 0 0 0
0 0 0 0
0 0 0 0
0 0 0 0
0 0 0 0
0 0 0 0
0 0 0 0
0 0 0 0
0 0 0 0
0 0 0 0
-7.402 0.142 -0.70999998 7.4373293
-7.4029999 0.094999999 -0.70999998 7.4375758
0 0 0 0
0 0 0 0
-7.4770002 0.014 -0.71899998 7.5115037
0 0 0 0
0 0 0 0
0 0 0 0
0 0 0 0
0 0 0 0
0 0 0 0
0 0 0 0
0 0 0 0
0 0 0 0
0 0 0 0
0 0 0 0
0 0 0 0
-7.8610001 -0.322 -0.67299998 7.8963242
0 0 0 0
0 0 0 0
0 0 0 0
0 0 0 0
0 0 0 0
-7.71 -0.47299999 -0.65700001 7.7523851
0 0 0 0
0 0 0 0
0 0 0 0
0 0 0 0
0 0 0 0
0 0 0 0
0 0 0 0
0 0 0 0
0 0 0 0
-7.8639998 -0.78200001 -0.67699999 7.9317303
-7.862 -0.80599999 -0.67699999 7.9321504
-7.8800001 -0.82099998 -0.67900002 7.9516969
-7.8860002 -0.84600002 -0.68000001 7.9603462
-7.915 -0.875 -0.68300003 7.992455
-7.9369998 -0.92799997 -0.68599999 8.0204582
-7.9320002 -0.95200002 -0.68599999 8.0183239
-7.948 -0.96700001 -0.68800002 8.0361147
-7.9510002 -0.99299997 -0.68900001 8.0423365
-7.9770002 -1.022 -0.69199997 8.0719194
-7.973 -1.072 -0.69199997 8.0744524
-8.0080004 -1.103 -0.69700003 8.1135988
-8.0010004 -1.127 -0.69599998 8.1099043
-8.0270004 -1.1440001 -0.699 8.1381865
-8.0690002 -1.202 -0.70499998 8.1884422
-8.0819998 -1.23 -0.70700002 8.205575
-12.248 -1.897 -1.0930001 12.442137
-12.25 -1.937 -1.094 12.450354
-12.304 -1.985 -1.101 12.511628
-12.354 -2.0580001 -1.03 12.566526
-12.394 -2.099 -1.112 12.619572
-12.424 -2.1500001 -1.038 12.651313
-12.43 -2.191 -1.039 12.664316
-12.506 -2.2449999 -1.048 12.749053
-12.873 -2.375 -1.085 13.135143
-12.895 -2.421 -1.0880001 13.165334
-12.918 -2.467 -1.092 13.196714
-12.945 -2.5150001 -1.095 13.232432
-12.955 -2.559 -1.097 13.250808
-13.005 -2.632 -1.103 13.314431
-13.022 -2.6789999 -1.1059999 13.340644
-13.059 -2.7290001 -1.11 13.387197
-13.058 -2.7720001 -1.1109999 13.395136
-13.103 -2.8239999 -1.1160001 13.450243
-13.126 -2.872 -1.119 13.483043
-13.153 -2.9430001 -1.124 13.525016
-13.178 -2.993 -1.127 13.560527
-13.198 -3.0409999 -1.13 13.590872
-13.241 -3.095 -1.135 13.645194
-13.188 -3.1259999 -1.131 13.600529
-10.415 -2.5009999 -0.91799998 10.750346
-10.285 -2.5209999 -0.90499997 10.628061
0 0 0 0
-10.188 -2.566 -0.89600003 10.544312
-10.143 -2.5880001 -0.89200002 10.505896
-10.04 -2.6129999 -0.88300002 10.411966
-9.9860001 -2.632 -0.87800002 10.36429
-9.9469995 -2.6559999 -0.87400001 10.332522
-9.9060001 -2.678 -0.87099999 10.298503
-9.8649998 -2.7 -0.86699998 10.264498
-9.7980003 -2.7479999 -0.86199999 10.21251
-9.7679996 -2.757 -0.85900003 10.185909
-9.7580004 -2.7869999 -0.85900003 10.18449
-9.724 -2.8099999 -0.85600001 10.158003
-9.6879997 -2.8329999 -0.85299999 10.129701
-9.6420002 -2.8859999 -0.85000002 10.100478
-9.618 -2.895 -0.84799999 10.079983
-9.5860004 -2.918 -0.84600002 10.055936
-9.5710001 -2.947 -0.84500003 10.050018
-9.5150003 -2.9949999 -0.84100002 10.010621
-9.4960003 -3.0220001 -0.83999997 10.000605
-9.4770002 -3.049 -0.83899999 9.9906883
-9.4639997 -3.0610001 -0.838 9.9819469
-9.4230003 -3.0799999 -0.83399999 9.9486122
-9.4280005 -3.148 -0.83700001 9.9748516
-9.3760004 -3.1630001 -0.833 9.9301481
-9.4510002 -3.221 -0.84200001 10.02024
-9.5229998 -3.263 -0.85000002 10.102336
0 0 0 0
-9.4239998 -3.3280001 -0.84299999 10.029856
-9.4420004 -3.368 -0.84600002 10.060344
-9.3540001 -3.3699999 -0.838 9.9777985
0 0 0 0
0 0 0 0
0 0 0 0
0 0 0 0
0 0 0 0
0 0 0 0
0 0 0 0
0 0 0 0
0 0 0 0
0 0 0 0
-9.4160004 -3.816 -0.86000001 10.196201
-9.552 -3.905 -0.87699997 10.356586
-9.618 -3.9679999 -0.88599998 10.442028
0 0 0 0
0 0 0 0
0 0 0 0
0 0 0 0
0 0 0 0
0 0 0 0
0 0 0 0
0 0 0 0
0 0 0 0
0 0 0 0
0 0 0 0
0 0 0 0
0 0 0 0
0 0 0 0
0 0 0 0
0 0 0 0
0 0 0 0
0 0 0 0
0 0 0 0
0 0 0 0
0 0 0 0
0 0 0 0
0 0 0 0
0 0 0 0
0 0 0 0
0 0 0 0
0 0 0 0
0 0 0 0
0 0 0 0
0 0 0 0
-10.495 -5.7030001 -1.046 11.990135
-10.515 -5.7989998 -1.053 12.054147
-10.531 -5.8509998 -1.057 12.093528
-10.551 -5.9060001 -1.062 12.138051
-10.588 -5.9699998 -1.068 12.201937
-10.707 -6.059 -1.084 12.350157
0 0 0 0
-12.18 -7.0539999 -1.182 14.124745
-12.152 -7.0900002 -1.182 14.118652
-12.113 -7.118 -1.1799999 14.099046
-12.114 -7.1440001 -1.181 14.113132
-12.113 -7.1950002 -1.184 14.138411
-12.078 -7.277 -1.1849999 14.150514
-12.045 -7.309 -1.184 14.138789
-11.902 -7.2729998 -1.17 13.997251
-11.832 -7.256 -1.163 13.928328
-11.77 -7.3200002 -1.161 13.909106
-11.757 -7.3629999 -1.1619999 13.920886
-11.725 -7.395 -1.161 13.910771
-11.682 -7.4180002 -1.159 13.886653
-11.667 -7.461 -1.16 13.897158
-11.626 -7.5120001 -1.159 13.890187
-11.623 -7.5619998 -1.1619999 13.915036
-11.574 -7.5819998 -1.159 13.884793
-11.573 -7.6339998 -1.1619999 13.912675
-11.581 -7.691 -1.165 13.950924
-11.606 -7.7859998 -1.1720001 14.024786
0 0 0 0
-11.727 -7.9759998 -1.193 14.232441
-11.72 -8.0249996 -1.1950001 14.25437
-11.711 -8.073 -1.197 14.274231
-11.735 -8.1440001 -1.2029999 14.334649
-11.742 -8.2309999 -1.2079999 14.390385
-11.783 -8.3149996 -1.216 14.472629
-11.773 -8.3640003 -1.2180001 14.492879
-11.811 -8.4469995 -1.226 14.572392
-11.954 -8.6070004 -1.247 14.782882
-12.053 -8.7650003 -1.2640001 14.95653
-12.099 -8.8570004 -1.273 15.048348
-12.135 -8.9420004 -1.28 15.127987
-12.141 -9.0059996 -1.285 15.171128
-12.281 -9.1700001 -1.3049999 15.382291
-13.966 -10.536 -1.518 17.560204
-13.993 -10.626 -1.526 17.636457
-14.01 -10.708 -1.5319999 17.699955
-14.06 -10.817 -1.5420001 17.806429
-14.128 -10.94 -1.5549999 17.936054
-14.128 -11.011 -1.559 17.979794
-14.012 -11.027 -1.551 17.897947
-13.918 -11.024 -1.544 17.821989
-12.956 -10.326 -1.427 16.628906
-12.906 -10.353 -1.425 16.606628
-12.87 -10.391 -1.425 16.602423
-12.938 -10.547 -1.439 16.754156
-12.977 -10.647 -1.449 16.848169
-13.436 -11.095 -1.511 17.490232
-13.476 -11.2 -1.521 17.58852
-13.407 -11.214 -1.517 17.544308
-13.295 -11.227 -1.5089999 17.466528
-13.252 -11.262 -1.508 17.456295
-13.192 -11.283 -1.505 17.42412
-13.139 -11.309 -1.503 17.400742
-13.055 -11.381 -1.501 17.384279
-13.017 -11.383 -1.498 17.356813
-12.929 -11.378 -1.4910001 17.287018
-12.859 -11.388 -1.487 17.240986
-12.789 -11.398 -1.482 17.195034
-12.698 -11.46 -1.48 17.168612
-12.671 -11.472 -1.479 17.156586
-12.617 -11.496 -1.476 17.13258
-12.578 -11.533 -1.476 17.128771
-12.486 -11.594 -1.473 17.102362
-12.441 -11.625 -1.472 17.090521
-12.414 -11.636 -1.471 17.078281
-12.36 -11.659 -1.469 17.054615
-12.319 -11.693 -1.4680001 17.04814
-12.218 -11.744 -1.464 17.010126
-12.174 -11.776 -1.4630001 17.000612
-12.121 -11.799 -1.461 16.978504
-12.096 -11.811 -1.46 16.968927
-11.952 -11.818 -1.451 16.870708
-11.981 -11.921 -1.46 16.964262
-5.9039998 -5.908 -0.727 8.3839254
-5.8759999 -5.9159999 -0.72500002 8.3697109
-5.8249998 -5.9200001 -0.72100002 8.3364782
-5.7849998 -5.9169998 -0.71799999 8.306181
-5.7540002 -5.9219999 -0.71600002 8.2880192
-5.7350001 -5.9400001 -0.71600002 8.2877312
-5.717 -5.9580002 -0.71600002 8.2882156
-5.6609998 -5.9559999 -0.71200001 8.2478962
-5.6360002 -5.9660001 -0.70999998 8.2378244
-5.605 -5.9710002 -0.708 8.2201061
-5.586 -5.9889998 -0.708 8.2202663
-5.559 -5.9970002 -0.70700002 8.2076998
-5.513 -6.0040002 -0.704 8.1814919
-5.4920001 -6.0190001 -0.704 8.1783886
-5.4650002 -6.027 -0.70300001 8.1660986
-5.4380002 -6.0349998 -0.70099998 8.153801
-5.4200001 -6.0539999 -0.70099998 8.155901
-5.3909998 -6.059 -0.69999999 8.1402922
-5.3610001 -6.0830002 -0.699 8.1382933
-5.335 -6.092 -0.69800001 8.1278467
-5.3130002 -6.1059999 -0.69800001 8.1239405
-5.2800002 -6.1059999 -0.69499999 8.1021395
-5.2589998 -6.1209998 -0.69499999 8.0997992
-5.2319999 -6.1469998 -0.69499999 8.1020031
-5.2010002 -6.1500001 -0.69300002 8.0841303
-5.184 -6.1690001 -0.69400001 8.0877724
-5.1690001 -6.1900001 -0.69499999 8.0943003
-5.1430001 -6.1989999 -0.69300002 8.0844479
-5.1079998 -6.217 -0.69300002 8.0760756
-5.0929999 -6.237 -0.69300002 8.0820217
-5.0760002 -6.256 -0.69400001 8.0860958
-5.0580001 -6.2750001 -0.69400001 8.0895386
-5.026 -6.276 -0.69199997 8.0701742
-5.0050001 -6.3099999 -0.69300002 8.0837107
-4.994 -6.3369999 -0.69499999 8.0981865
-4.967 -6.3429999 -0.69400001 8.0861845
-4.954 -6.368 -0.69499999 8.0979357
-4.941 -6.3930001 -0.69599998 8.1097679
-4.9159999 -6.4229999 -0.69700003 8.1183615
-4.9039998 -6.4489999 -0.699 8.131876
-4.8909998 -6.474 -0.69999999 8.1439886
-4.8740001 -6.494 -0.70099998 8.1498041
-4.8499999 -6.5469999 -0.704 8.1781006
-4.8429999 -6.5819998 -0.70599997 8.2021828
-4.8449998 -6.605 -0.70899999 8.2220879
-4.8470001 -6.6529999 -0.713 8.2622147
-4.8629999 -6.7189999 -0.72000003 8.3253908
-4.9070001 -6.8709998 -0.73699999 8.4754028
-4.9489999 -6.9759998 -0.74900001 8.5859289
-5.0100002 -7.086 -0.76300001 8.7116966
-5.0900002 -7.2490001 -0.78299999 8.892086
-5.2340002 -7.5549998 -0.759 9.2221937
-5.309 -7.7140002 -0.77700001 9.3965425
-5.4070001 -7.9070001 -0.80000001 9.6122999
-5.5229998 -8.1309996 -0.82599998 9.8640232
-5.8860002 -8.7510004 -0.90100002 10.584743
-6.0279999 -9.0220003 -0.93199998 10.89045
-6.223 -9.375 -0.97399998 11.294469
-9.0970001 -13.82 -1.425 16.606579
-9.0579996 -13.855 -1.426 16.614508
-9.04 -13.876 -1.426 16.622229
-8.9720001 -13.963 -1.4299999 16.658543
-8.927 -13.989 -1.4299999 16.656179
-8.8800001 -14.012 -1.429 16.650303
-8.835 -14.038 -1.429 16.648266
-8.7810001 -14.051 -1.427 16.63048
-8.691 -14.053 -1.423 16.584488
-8.6359997 -14.062 -1.421 16.5632
-8.5819998 -14.073 -1.419 16.544292
-8.5240002 -14.078 -1.416 16.518284
-8.4890003 -14.12 -1.418 16.53627
-8.3959999 -14.115 -1.413 16.484011
-8.3439999 -14.128 -1.411 16.468565
-8.2779999 -14.118 -1.4069999 16.426285
-8.2069998 -14.097 -1.402 16.372107
-8.1549997 -14.109 -1.4 16.356279
-8.0439997 -14.07 -1.392 16.26679
-7.9850001 -14.069 -1.3890001 16.236574
-7.9229999 -14.063 -1.385 16.200621
-7.868 -14.069 -1.383 16.178841
-7.8270001 -14.098 -1.3839999 16.184282
-7.7329998 -14.084 -1.378 16.126289
-7.684 -14.1 -1.377 16.116762
-7.6300001 -14.106 -1.375 16.096172
-7.5760002 -14.113 -1.373 16.076618
-7.507 -14.091 -1.368 16.024443
-5.8769999 -11.103 -1.034 12.604955
-3.3329999 -6.3639998 -0.597 7.2087302
-3.425 -6.5910001 -0.62400001 7.4539442
-3.257 -6.3140001 -0.588 7.1288419
-4.717 -9.2959995 -0.88800001 10.462038
-4.6599998 -9.2559996 -0.88099998 10.400254
-4.6599998 -9.2919998 -0.88499999 10.432645
-4.625 -9.2959995 -0.88300002 10.420457
-4.6090002 -9.3369999 -0.88700002 10.450321
-4.5609999 -9.3140001 -0.88200003 10.408229
-4.4920001 -9.3210001 -0.88 10.384292
-4.4990001 -9.3730001 -0.88499999 10.434431
-4.5669999 -9.5889997 -0.90799999 10.659778
-5.2069998 -11.104 -1.08 12.311705
-5.8779998 -12.657 -1.171 14.004348
-5.8280001 -12.652 -1.168 13.97866
-5.868 -12.793 -1.182 14.124143
-5.803 -12.756 -1.176 14.06319
-5.7490001 -12.743 -1.173 14.028934
-5.7270002 -12.803 -1.177 14.074824
-4.9819999 -11.309 -1.09 12.405721
-4.9310002 -11.288 -1.086 12.365804
-4.0500002 -9.4040003 -0.86900002 10.27584
-4.0170002 -9.408 -0.86799997 10.266459
-3.973 -9.3870001 -0.86400002 10.229712
-3.835 -9.1420002 -0.83399999 9.9488163
-3.7969999 -9.132 -0.83200002 9.92486
-3.7950001 -9.1689997 -0.83600003 9.9584875
-3.701 -9.1020002 -0.82499999 9.8602448
-3.6400001 -9.0349998 -0.81599998 9.7747984
-3.6700001 -9.1920004 -0.833 9.9325562
-3.5799999 -9.0500002 -0.81599998 9.7665119
-3.493 -8.8719997 -0.79500002 9.5679388
-3.4860001 -9.0179996 -0.80900002 9.7021132
-3.4330001 -8.9659996 -0.80199999 9.634202
-3.381 -8.9160004 -0.79500002 9.5686073
-3.345 -8.9040003 -0.79299998 9.5445843
-3.3369999 -8.9680004 -0.79900002 9.6020317
-3.2850001 -8.9560003 -0.79500002 9.5725231
-3.494 -9.6140003 -0.86799997 10.265985
-3.2279999 -8.9759998 -0.79500002 9.5718641
-3.1930001 -8.9680004 -0.79299998 9.5524406
-3.168 -8.9849997 -0.79400003 9.5601721
-3.131 -9.0150003 -0.796 9.5763779
-3.105 -9.0319996 -0.79699999 9.5840101
-3.079 -9.0480003 -0.79699999 9.5907125
-3.0580001 -9.0819998 -0.80000001 9.6163445
-3.017 -9.0539999 -0.796 9.5765762
-3.027 -9.2270002 -0.81300002 9.7448053
-2.977 -9.1719999 -0.80599999 9.6766596
-2.9400001 -9.1549997 -0.80299997 9.6489601
-2.9070001 -9.1520004 -0.80199999 9.6360245
-2.878 -9.1599998 -0.80199999 9.6349201
-2.832 -9.1630001 -0.801 9.624053
-2.846 -9.3129997 -0.81599998 9.7722845
-2.7809999 -9.2060003 -0.80400002 9.6504307
-2.7539999 -9.2200003 -0.80400002 9.6560516
-2.7490001 -9.309 -0.81300002 9.7404032
-2.7920001 -9.5620003 -0.83899999 9.9965506
-2.767 -9.6440001 -0.847 10.068785
-2.724 -9.6099997 -0.84200001 10.024033
-2.661 -9.5019999 -0.82999998 9.9024153
-2.622 -9.4759998 -0.82599998 9.8666983
-2.5940001 -9.4919996 -0.82700002 9.8747568
-2.585 -9.6359997 -0.84100002 10.012093
-2.5940001 -9.79 -0.85699999 10.164024
-2.6059999 -9.9619999 -0.875 10.334327
-2.5109999 -9.7259998 -0.84799999 10.08064
-2.526 -10.04 -0.88 10.39022
-2.457 -9.8319998 -0.85799998 10.170607
-2.408 -9.7679996 -0.85000002 10.096275
-2.398 -9.8590002 -0.85900003 10.182739
-2.388 -9.9530001 -0.86799997 10.272204
-2.2620001 -9.6990004 -0.83899999 9.9945574
-2.244 -9.691 -0.838 9.9826479
-2.2119999 -9.6920004 -0.83700001 9.9763908
-2.1849999 -9.7119999 -0.83899999 9.9900494
-2.142 -9.665 -0.833 9.9344988
-2.066 -9.6079998 -0.82599998 9.8622656
-2.056 -9.6350002 -0.82800001 9.8866549
-2.039 -9.7030001 -0.83499998 9.9500227
-2.0209999 -9.7720003 -0.84100002 10.014175
-1.9220001 -9.599 -0.82200003 9.8239794
-1.892 -9.6049995 -0.82200003 9.8240204
-1.8609999 -9.6070004 -0.82099998 9.8199701
-1.848 -9.618 -0.82200003 9.8283625
-1.812 -9.5930004 -0.81900001 9.7969255
-1.752 -9.6099997 -0.81900001 9.8026714
-1.711 -9.5539999 -0.81300002 9.7399902
-1.683 -9.5690002 -0.81400001 9.7499151
-1.686 -9.6759996 -0.82499999 9.8563786
-1.374 -8.1879997 -0.72100002 8.3337307
-1.351 -8.21 -0.72299999 8.3517685
-1.321 -8.1890001 -0.72000003 8.3260536
-1.312 -8.2159996 -0.72299999 8.35145
-1.533 -9.7959995 -0.83499998 9.9503231
-1.483 -9.8780003 -0.84200001 10.024128
0 0 0 0
0 0 0 0
0 0 0 0
0 0 0 0
-0.89300001 -6.6890001 -0.58999997 6.7740879
-0.87 -6.6799998 -0.58899999 6.7621164
-0.84899998 -6.6799998 -0.58899999 6.7594466
-0.829 -6.691 -0.58999997 6.7679257
-0.81099999 -6.717 -0.59200001 6.7916327
-1.467 -12.697 -1.1339999 12.831673
-1.4220001 -12.656 -1.1289999 12.785581
-1.2640001 -11.595 -1.017 11.707947
-1.2309999 -11.631 -1.021 11.740441
-1.1849999 -11.547 -1.011 11.65159
-1.122 -11.474 -1.003 11.572276
-1.08 -11.416 -0.99699998 11.510233
-1.0470001 -11.443 -0.99900001 11.534142
-1.01 -11.434 -0.99800003 11.521825
-0.97299999 -11.427 -0.99699998 11.511605
-0.93699998 -11.432 -0.99699998 11.513583
-0.85799998 -11.123 -0.96399999 11.197616
-0.81800002 -11.051 -0.95599997 11.122394
-0.778 -10.984 -0.949 11.052337
-0.74000001 -10.937 -0.94400001 11.002578
-0.67199999 -10.688 -0.91799998 10.748379
-0.63499999 -10.63 -0.91100001 10.687846
-0.59799999 -10.581 -0.90600002 10.636541
-0.56199998 -10.531 -0.90100002 10.584404
-0.53200001 -10.59 -0.90700001 10.642076
-0.49200001 -10.455 -0.89200002 10.504511
-0.44400001 -10.481 -0.89499998 10.52851
-0.412 -10.508 -0.89700001 10.554261
0 0 0 0
-0.33899999 -10.311 -0.87699997 10.353781
-0.287 -10.214 -0.866 10.254663
-0.25400001 -10.175 -0.86199999 10.214606
-0.221 -10.138 -0.85799998 10.176641
-0.18799999 -10.075 -0.852 10.112709
-0.15800001 -10.155 -0.86000001 10.192575
-0.096000001 -10.299 -0.875 10.336549
-0.079000004 -10.293 -0.87400001 10.330342
-0.046999998 -10.291 -0.87400001 10.328155
-0.015 -10.323 -0.87699997 10.360197
0.017999999 -10.307 -0.87599999 10.344174
0.078000002 -9.5749998 -0.79900002 9.6085949
0.093000002 -9.5229998 -0.79400003 9.5564957
0.123 -9.5129995 -0.79299998 9.5467863
0.15700001 -9.8009996 -0.82300001 9.8367462
0.182 -9.474 -0.78899997 9.5085392
0.23999999 -9.4049997 -0.78200001 9.440506
0.255 -9.4090004 -0.78200001 9.4448843
0.28299999 -9.3699999 -0.778 9.4065018
0.30599999 -9.1339998 -0.75400001 9.1701746
0.36199999 -9.1140003 -0.75199997 9.1521339
0.36700001 -8.8870001 -0.787 8.9293242
0.396 -8.9139996 -0.79000002 8.957695
0.421 -8.849 -0.78299999 8.8935442
0.44499999 -8.7779999 -0.77499998 8.8233747
0.49900001 -8.7539997 -0.773 8.8022175
0.53399998 -9.092 -0.81 9.1436167
0.53600001 -8.6899996 -0.76599997 8.7401447
0.56199998 -8.658 -0.76200002 8.7096176
0.616 -8.6470003 -0.76200002 8.7023392
0.63300002 -8.5240002 -0.74800003 8.5801382
0.65499997 -8.46 -0.741 8.5176115
0.66799998 -8.4530001 -0.741 8.5116692
0.69700003 -8.4770002 -0.74400002 8.538084
0.74400002 -8.4090004 -0.736 8.4738731
0.77200001 -8.4259996 -0.73900002 8.4935017
0.796 -8.3920002 -0.73500001 8.4616489
0.79799998 -8.2840004 -0.72299999 8.353694
0.84600002 -8.2340002 -0.71799999 8.3084297
0.87 -8.2189999 -0.71700001 8.2959595
0.87199998 -8.0050001 -0.69300002 8.0821199
0.90399998 -8.059 -0.69999999 8.139699
0.926 -8.0310001 -0.69700003 8.1142006
0.949 -7.9000001 -0.68300003 7.9860559
0.97000003 -7.8709998 -0.68000001 7.9596443
0.98699999 -7.8049998 -0.67299998 7.8958926
1.0140001 -7.822 -0.67500001 7.9162807
1.0319999 -7.7709999 -0.67000002 7.8678055
1.074 -7.8039999 -0.67400002 7.9063373
1.1 -7.8119998 -0.67500001 7.9178886
1.124 -7.8049998 -0.67500001 7.9143553
1.164 -7.901 -0.68599999 8.0156898
1.184 -7.8699999 -0.68300003 7.9878182
1.197 -7.7129998 -0.66600001 7.8336921
1.2 -7.5760002 -0.65100002 7.6980243
1.222 -7.5630002 -0.64999998 7.688612
1.256 -7.6170001 -0.65600002 7.7476811
1.284 -7.6389999 -0.65899998 7.7741404
1.281 -7.4120002 -0.634 7.5485539
1.29 -7.3270001 -0.625 7.4658995
0 0 0 0
1.401 -7.6669998 -0.66500002 7.8222704
1.396 -7.5120001 -0.648 7.6680417
1.4579999 -7.7069998 -0.67000002 7.872262
1.365 -7.0469999 -0.59600002 7.2026834
1.383 -7.0190001 -0.59399998 7.1785712
1.398 -6.9829998 -0.58999997 7.1459632
1.539 -7.5510001 -0.65499997 7.7340255
1.433 -6.8769999 -0.579 7.0485358
1.4529999 -6.8660002 -0.579 7.041904
1.4680001 -6.8309999 -0.57499999 7.0105782
1.512 -6.8270001 -0.57599998 7.0161138
0 0 0 0
1.5700001 -6.9029999 -0.62900001 7.1071758
1.562 -6.7649999 -0.61299998 6.969996
0 0 0 0
1.557 -6.5089998 -0.58399999 6.7180638
1.5700001 -6.4710002 -0.57999998 6.6839466
1.605 -6.5279999 -0.58700001 6.7479911
1.637 -6.5689998 -0.59299999 6.7958202
1.652 -6.4959998 -0.58499998 6.7282495
1.677 -6.5100002 -0.58700001 6.7481112
1.691 -6.4809999 -0.58399999 6.7233844
1.7 -6.4320002 -0.579 6.6780133
1.717 -6.415 -0.57800001 6.6659131
1.74 -6.3800001 -0.574 6.6378822
1.753 -6.3470001 -0.57099998 6.6093469
1.766 -6.3150001 -0.56800002 6.5818391
1.774 -6.2670002 -0.56300002 6.5375328
1.791 -6.2540002 -0.56199998 6.5296283
1.809 -6.2059999 -0.55699998 6.4882326
1.829 -6.2020001 -0.55699998 6.490015
1.836 -6.1539998 -0.55199999 6.4457202
1.85 -6.1269999 -0.55000001 6.4237938
1.868 -6.1199999 -0.54900002 6.4222445
1.882 -6.0970001 -0.54699999 6.4042602
1.9 -6.053 -0.54299998 6.3673902
1.91 -6.0170002 -0.53899997 6.3358436
1.925 -6 -0.53799999 6.3241653
1.938 -5.9749999 -0.53600001 6.3042655
1.949 -5.9460001 -0.53299999 6.2799363
1.966 -5.9029999 -0.52899998 6.2442298
1.983 -5.8909998 -0.528 6.2381854
1.997 -5.8709998 -0.52600002 6.2236104
2.0079999 -5.8439999 -0.52399999 6.20153
2.0239999 -5.829 -0.523 6.1925235
2.0320001 -5.7940001 -0.51899999 6.1618848
2.049 -5.756 -0.51599997 6.1315732
2.063 -5.737 -0.514 6.1182785
2.0799999 -5.7270002 -0.514 6.114665
2.0899999 -5.6989999 -0.51099998 6.0916185
2.098 -5.665 -0.50800002 6.0623341
2.1170001 -5.6339998 -0.505 6.0397573
2.125 -5.6020002 -0.50199997 6.0124898
2.1459999 -5.6040001 -0.50300002 6.0218887
2.1559999 -5.5770001 -0.5 6.0001054
2.165 -5.5500002 -0.498 5.9781046
2.181 -5.5139999 -0.495 5.9502926
2.2049999 -5.5229998 -0.49700001 5.9676261
2.2030001 -5.4689999 -0.491 5.9164391
2.2030001 -5.4169998 -0.48500001 5.8679061
2.1860001 -5.3280001 -0.47499999 5.778564
2.1070001 -5.0630002 -0.47400001 5.5043707
2.132 -5.079 -0.477 5.5289416
2.2390001 -5.2880001 -0.47299999 5.7619262
2.279 -5.3379998 -0.47999999 5.8239579
2.283 -5.3000002 -0.47600001 5.7903943
2.2869999 -5.237 -0.50199997 5.7365966
2.323 -5.2729998 -0.50800002 5.7843685
2.332 -5.2259998 -0.50300002 5.7447634
2.3529999 -5.2290001 -0.505 5.7562203
2.3800001 -5.2449999 -0.50800002 5.7820835
2.4119999 -5.27 -0.51200002 5.818315
2.4089999 -5.2280002 -0.47400001 5.7758064
2.437 -5.244 -0.477 5.8022437
2.503 -5.3010001 -0.48699999 5.8824129
2.53 -5.3140001 -0.48899999 5.9058123
2.5420001 -5.3179998 -0.49000001 5.9146419
2.5780001 -5.3509998 -0.49599999 5.9603105
2.6070001 -5.368 -0.49900001 5.9883947
2.5769999 -5.2210002 -0.48199999 5.842268
2.6700001 -5.3699999 -0.50199997 6.0181227
2.6930001 -5.3940001 -0.50599998 6.0500841
2.7130001 -5.3909998 -0.50700003 6.056426
2.734 -5.349 -0.50400001 6.0283141
2.7520001 -5.3439999 -0.50400001 6.0320692
2.7709999 -5.3390002 -0.505 6.0364218
2.7839999 -5.3429999 -0.50599998 6.0460181
2.849 -5.3850002 -0.514 6.1138549
2.8759999 -5.3959999 -0.51599997 6.136322
2.911 -5.4200001 -0.52100003 6.1742821
2.9330001 -5.421 -0.52200001 6.1856461
2.9679999 -5.4450002 -0.52600002 6.2236423
3.0220001 -5.4840002 -0.53299999 6.284173
3.0480001 -5.4899998 -0.53500003 6.3021126
3.0769999 -5.5009999 -0.53799999 6.3260074
3.115 -5.5279999 -0.54299998 6.3684268
3.1389999 -5.5300002 -0.54500002 6.3821034
3.181 -5.5440001 -0.54900002 6.4153018
3.2309999 -5.5910001 -0.55599999 6.4813409
3.263 -5.605 -0.56 6.5097461
3.299 -5.6279998 -0.56400001 6.5479674
3.3329999 -5.645 -0.56800002 6.5800867
3.3900001 -5.6799998 -0.57499999 6.6396627
3.4300001 -5.7069998 -0.57999998 6.6836476
3.4590001 -5.7150002 -0.58200002 6.7055669
3.493 -5.73 -0.58600003 6.7362709
3.5380001 -5.763 -0.59200001 6.7882309
3.569 -5.7740002 -0.59500003 6.8140197
3.622 -5.7989998 -0.60100001 6.8635621
3.6719999 -5.8379998 -0.60799998 6.9235458
3.7160001 -5.8670001 -0.61299998 6.9718089
3.7409999 -5.8649998 -0.61500001 6.9836612
3.789 -5.9000001 -0.62099999 7.0393295
3.852 -5.9380002 -0.62900001 7.1058702
3.8900001 -5.9549999 -0.63300002 7.1410651
3.9230001 -5.9650002 -0.63599998 7.1676812
3.9649999 -5.987 -0.64099997 7.2094574
4.0349998 -6.0310001 -0.64999998 7.2853746
0 0 0 0
0 0 0 0
0 0 0 0
4.2540002 -6.1570001 -0.63 7.5101309
4.3140001 -6.1999998 -0.63800001 7.5800819
0 0 0 0
0 0 0 0
0 0 0 0
0 0 0 0
4.5570002 -6.3130002 -0.66399997 7.8141613
4.6059999 -6.3390002 -0.66900003 7.8642044
4.6469998 -6.3530002 -0.67299998 7.8998828
4.698 -6.3800001 -0.67900002 7.952147
4.7519999 -6.4109998 -0.685 8.0094719
4.8070002 -6.4429998 -0.69199997 8.0683556
4.9060001 -6.5100002 -0.704 8.1819658
4.954 -6.5310001 -0.70899999 8.2279253
5.006 -6.5560002 -0.71499997 8.2796373
5.0700002 -6.5970001 -0.72299999 8.3515291
5.1110001 -6.6059999 -0.727 8.3839178
5.2069998 -6.665 -0.73799998 8.4899778
5.2639999 -6.6939998 -0.745 8.5483532
5.3200002 -6.7220001 -0.75099999 8.6053295
5.3759999 -6.7490001 -0.75700003 8.6616068
5.4460001 -6.7919998 -0.76599997 8.7393894
5.5430002 -6.8470001 -0.77700001 8.8436413
5.6090002 -6.8829999 -0.78500003 8.9136295
5.658 -6.8990002 -0.79000002 8.9573021
5.7270002 -6.9380002 -0.79799998 9.0316763
5.7449999 -6.915 -0.79699999 9.0253782
5.743 -6.8470001 -0.79100001 8.9715738
5.8000002 -6.8720002 -0.79799998 9.0278015
5.848 -6.8839998 -0.80199999 9.0681734
5.8670001 -6.862 -0.80199999 9.0637703
5.934 -6.8540001 -0.74599999 9.0964937
6.007 -6.8940001 -0.75400001 9.1749554
6.0700002 -6.9439998 -0.76200002 9.2544413
6.1459999 -6.9879999 -0.77100003 9.338089
6.217 -7.0240002 -0.77899998 9.412466
6.3769999 -7.1149998 -0.79699999 9.5877295
6.4559999 -7.158 -0.80599999 9.6729794
6.5089998 -7.1950002 -0.81199998 9.7362442
6.5949998 -7.244 -0.82200003 9.8308315
6.7459998 -7.3179998 -0.83899999 9.9882708
6.835 -7.368 -0.84899998 10.085904
6.9190001 -7.4120002 -0.85799998 10.175778
6.987 -7.461 -0.86699998 10.258478
7.177 -7.5689998 -0.88800001 10.468411
7.2550001 -7.6040001 -0.89700001 10.548007
7.3410001 -7.6459999 -0.90600002 10.638253
7.4520001 -7.7129998 -0.91900003 10.764164
7.546 -7.763 -0.93000001 10.866056
7.7470002 -7.895 -0.954 11.102124
7.9499998 -8.052 -0.98100001 11.357798
8.0939999 -8.1470003 -0.99900001 11.527552
8.2220001 -8.2250004 -1.0140001 11.673907
8.2709999 -8.2209997 -1.017 11.70592
8.3559999 -8.2290001 -1.024 11.77233
8.474 -8.2930002 -1.0369999 11.902012
8.5830002 -8.3470001 -1.049 12.018349
8.7040005 -8.4130001 -1.063 12.151879
8.8210001 -8.4720001 -1.076 12.277728
9.0869999 -8.6389999 -1.031 12.580495
9.2030001 -8.6940002 -1.043 12.703098
9.3260002 -8.7550001 -1.056 12.835086
9.4709997 -8.835 -1.072 12.996394
9.5959997 -8.8950005 -1.085 13.129413
9.8620005 -9.0550003 -1.115 13.434854
10.038 -9.158 -1.1339999 13.635115
10.17 -9.2189999 -1.148 13.774497
10.32 -9.2959995 -1.164 13.938181
10.483 -9.3830004 -1.182 14.118467
10.787 -9.5629997 -1.216 14.466824
10.956 -9.651 -1.234 14.652594
11.121 -9.7340002 -1.251 14.832141
11.319 -9.8439999 -1.273 15.054722
11.497 -9.9359999 -1.2920001 15.250389
11.892 -10.179 -1.337 15.710483
12.05 -10.248 -1.354 15.876313
6.632 -5.6059999 -0.76300001 8.7173862
6.6539998 -5.5890002 -0.764 8.723321
6.6599998 -5.5580001 -0.76200002 8.7079048
6.6259999 -5.4780002 -0.75400001 8.6302309
6.632 -5.448 -0.75199997 8.6156626
6.6279998 -5.4089999 -0.74900001 8.5877047
6.645 -5.3889999 -0.74900001 8.5882683
6.6570001 -5.3639998 -0.74800003 8.5818214
6.6479998 -5.3049998 -0.74400002 8.5377083
6.677 -5.2940001 -0.745 8.5535831
6.697 -5.276 -0.74599999 8.5581837
6.7090001 -5.2509999 -0.745 8.5521164
6.7160001 -5.223 -0.74400002 8.54037
6.7399998 -5.191 -0.74400002 8.5397663
6.7360001 -5.1539998 -0.741 8.5138998
6.7490001 -5.131 -0.74000001 8.5102158
6.7649999 -5.1090002 -0.74000001 8.5096836
6.789 -5.0939999 -0.74199998 8.5199718
6.8189998 -5.0669999 -0.74199998 8.5278263
0 0 0 0
6.8509998 -5.0240002 -0.74199998 8.5280323
6.8429999 -4.9850001 -0.73900002 8.4984112
6.8530002 -4.96 -0.73799998 8.4917526
6.8779998 -4.928 -0.73900002 8.4934196
6.902 -4.9130001 -0.74000001 8.5042801
6.9029999 -4.881 -0.73799998 8.4864731
6.9159999 -4.8579998 -0.73799998 8.4838591
6.948 -4.8150001 -0.73799998 8.4854918
6.9660001 -4.8109999 -0.73900002 8.4980583
6.9689999 -4.7810001 -0.73799998 8.4834881
6.9889998 -4.763 -0.73799998 8.4898138
7.0170002 -4.75 -0.74000001 8.5057859
7.0289998 -4.6929998 -0.73799998 8.4838514
7.0580001 -4.697 -0.74000001 8.5102749
7.0809999 -4.6799998 -0.74199998 8.5201836
7.0970001 -4.6589999 -0.74199998 8.521987
7.112 -4.6360002 -0.74199998 8.5219488
7.1409998 -4.592 -0.74199998 8.522377
7.1479998 -4.5799999 -0.74199998 8.5217876
7.1589999 -4.5560002 -0.741 8.5180693
0 0 0 0
0 0 0 0
0 0 0 0
0 0 0 0
0 0 0 0
7.973 -4.8130002 -0.77200001 9.3450356
8.323 -4.9899998 -0.81300002 9.7382441
16.829 -10.005 -1.723 19.65411
16.878 -9.9619999 -1.725 19.67445
16.093 -9.4320002 -1.632 18.724602
16.089001 -9.3959999 -1.63 18.702879
18.212 -10.473 -1.73 21.079695
18.240999 -10.414 -1.729 21.075457
18.267 -10.352 -1.729 21.06743
18.306 -10.299 -1.729 21.075304
18.298 -10.256 -1.727 21.047205
18.332001 -10.2 -1.727 21.04958
18.368 -10.069 -1.724 21.01762
18.362 -9.9910002 -1.72 20.974783
18.399 -9.9359999 -1.721 20.981161
18.393999 -9.8959999 -1.719 20.957695
18.441 -9.7729998 -1.717 20.941111
18.504999 -9.7329998 -1.721 20.979231
18.504 -9.658 -1.717 20.943331
18.554001 -9.6099997 -1.719 20.965637
18.551001 -9.5710001 -1.7180001 20.945051
18.622 -9.46 -1.719 20.957706
18.671 -9.4110003 -1.721 20.979395
18.679001 -9.342 -1.719 20.9555
18.749001 -9.3039999 -1.723 21.001385
18.766001 -9.2379999 -1.721 20.987265
18.813 -9.1520004 -1.722 20.991745
18.830999 -9.0869999 -1.721 20.979561
18.870001 -9.033 -1.722 20.991362
18.9 -8.9750004 -1.722 20.993473
18.915001 -8.9090004 -1.721 20.978785
18.976999 -8.8290005 -1.723 21.001106
18.997 -8.7659998 -1.722 20.992714
19.025 -8.7069998 -1.722 20.993517
19.049999 -8.6459999 -1.722 20.990974
19.072001 -8.5839996 -1.721 20.985426
19.149 -8.5100002 -1.725 21.025698
19.184 -8.4540005 -1.726 21.035091
19.242001 -8.4069996 -1.729 21.069448
19.294001 -8.3579998 -1.732 21.097736
19.344 -8.3070002 -1.734 21.123526
19.415001 -8.2659998 -1.738 21.172852
19.485001 -8.1879997 -1.742 21.20715
19.548 -8.1420002 -1.745 21.247623
19.593 -8.0889997 -1.747 21.268982
19.632999 -8.033 -1.749 21.284801
19.697001 -7.987 -1.753 21.326908
19.77 -7.908 -1.756 21.365227
19.834999 -7.862 -1.76 21.408779
19.886 -7.8099999 -1.763 21.437286
19.929001 -7.7550001 -1.7640001 21.457325
19.996 -7.7090001 -1.7690001 21.503443
20.114 -7.6459999 -1.777 21.59148
20.169001 -7.5949998 -1.78 21.625008
20.247 -7.5510001 -1.785 21.682823
20.285999 -7.493 -1.7869999 21.699312
20.356001 -7.447 -1.791 21.749304
20.464001 -7.3769999 -1.798 21.827238
20.523001 -7.3260002 -1.802 21.865751
20.577 -7.2719998 -1.8049999 21.898697
20.615 -7.2129998 -1.806 21.914999
20.726 -7.1059999 -1.813 21.985207
20.775 -7.086 -1.816 22.025209
20.84 -7.0359998 -1.821 22.070951
20.879 -6.9759998 -1.822 22.08884
20.955999 -6.9289999 -1.8279999 22.147383
21.084 -6.8239999 -1.836 22.236748
21.152 -6.8099999 -1.841 22.297365
21.243 -6.7659998 -1.848 22.370939
21.365 -6.7309999 -1.858 22.477139
21.476 -6.6170001 -1.864 22.549452
21.252001 -6.4749999 -1.841 22.292654
21.002001 -6.3270001 -1.8150001 22.009298
20.774 -6.2220001 -1.7920001 21.75968
20.674999 -6.1209998 -1.781 21.635485
20.718 -5.993 -1.781 21.640785
20.778999 -5.9400001 -1.785 21.68494
20.798 -5.875 -1.785 21.685448
20.865 -5.8579998 -1.791 21.745621
20.910999 -5.73 -1.7920001 21.755783
20.927 -5.664 -1.7920001 21.753885
20.931 -5.5939999 -1.79 21.73945
20.964001 -5.5320001 -1.7920001 21.755543
20.907 -5.4819999 -1.786 21.687433
20.906 -5.342 -1.7819999 21.651175
20.893999 -5.2690001 -1.779 21.621435
20.896999 -5.1999998 -1.778 21.607542
20.913 -5.1339998 -1.778 21.607239
20.902 -5.027 -1.775 21.571161
20.917999 -4.961 -1.775 21.571388
20.933001 -4.8959999 -1.775 21.571091
20.921 -4.8239999 -1.772 21.542961
20.979 -4.7680001 -1.776 21.587183
20.974001 -4.6630001 -1.774 21.559206
20.966999 -4.592 -1.772 21.53698
20.948999 -4.5190001 -1.7690001 21.50375
20.922001 -4.4439998 -1.765 21.461466
20.931999 -4.3779998 -1.7640001 21.457567
20.954 -4.2789998 -1.765 21.459152
20.985001 -4.217 -1.766 21.477245
20.979 -4.1469998 -1.7640001 21.457581
21.044001 -4.092 -1.7690001 21.511017
21.011999 -4.0170002 -1.765 21.465219
21.049999 -3.9560001 -1.768 21.491352
21.08 -3.859 -1.7690001 21.503201
21.052999 -3.7850001 -1.765 21.46323
21.065001 -3.7190001 -1.765 21.463469
21.035 -3.6459999 -1.761 21.42115
21.033001 -3.5769999 -1.76 21.407467
20.877001 -3.4489999 -1.744 21.231728
20.724001 -3.3570001 -1.729 21.06521
20.594999 -3.27 -1.716 20.923468
19.910999 -3.1029999 -1.779 20.229715
19.933001 -3.043 -1.78 20.242352
19.927 -2.9779999 -1.779 20.226681
19.885 -2.8759999 -1.773 20.169981
19.766001 -2.7950001 -1.761 20.040157
19.636999 -2.714 -1.747 19.90049
19.517 -2.6359999 -1.734 19.770395
19.215 -2.503 -1.7029999 19.452028
19.075001 -2.424 -1.688 19.302351
18.926001 -2.345 -1.673 19.143967
18.787001 -2.2679999 -1.659 18.995987
18.544001 -2.1210001 -1.633 18.736202
18.415001 -2.0769999 -1.62 18.602434
18.295 -2.0050001 -1.608 18.474651
18.181999 -1.936 -1.596 18.354301
18.108999 -1.87 -1.5880001 18.274422
18.226999 -1.767 -1.599 18.382128
18.139999 -1.701 -1.589 18.288736
18.115 -1.67 -1.587 18.260906
18.042 -1.6059999 -1.579 18.182032
17.645 -1.46 -1.539 17.77206
17.184 -1.368 -1.493 17.302898
17.101999 -1.307 -1.485 17.216036
16.964001 -1.27 -1.471 17.074955
16.502001 -1.132 -1.425 16.602051
16.603001 -1.087 -1.434 16.700228
16.656 -1.0369999 -1.439 16.750177
16.483 -0.97500002 -1.4220001 16.572929
16.441999 -0.94700003 -1.4170001 16.530096
16.259001 -0.83399999 -1.399 16.340376
15.991 -0.76999998 -1.372 16.068211
15.886 -0.71499997 -1.362 15.960302
15.765 -0.66100001 -1.35 15.836497
15.179 -0.565 -1.2920001 15.244361
15.083 -0.514 -1.2819999 15.146109
14.799 -0.45899999 -1.2539999 14.859124
0 0 0 0
0 0 0 0
0 0 0 0
0 0 0 0
0 0 0 0
0 0 0 0
0 0 0 0
0 0 0 0
0 0 0 0
0 0 0 0
0 0 0 0
0 0 0 0
0 0 0 0
0 0 0 0
0 0 0 0
0 0 0 0
0 0 0 0
0 0 0 0
0 0 0 0
0 0 0 0
0 0 0 0
0 0 0 0
0 0 0 0
0 0 0 0
0 0 0 0
0 0 0 0
0 0 0 0
0 0 0 0
0 0 0 0
0 0 0 0
0 0 0 0
0 0 0 0
0 0 0 0
0 0 0 0
0 0 0 0
0 0 0 0
0 0 0 0
0 0 0 0
6.862 0.73000002 -0.60799998 6.927453
6.842 0.74900001 -0.60600001 6.9095011
0 0 0 0
6.816 0.79000002 -0.60399997 6.8881617
6.8010001 0.81 -0.602 6.8754711
6.789 0.82999998 -0.60100001 6.8659029
0 0 0 0
0 0 0 0
0 0 0 0
0 0 0 0
0 0 0 0
0 0 0 0
0 0 0 0
0 0 0 0
0 0 0 0
0 0 0 0
0 0 0 0
0 0 0 0
0 0 0 0
0 0 0 0
0 0 0 0
0 0 0 0
0 0 0 0
0 0 0 0
0 0 0 0
0 0 0 0
0 0 0 0
0 0 0 0
0 0 0 0
0 0 0 0
0 0 0 0
0 0 0 0
0 0 0 0
0 0 0 0
0 0 0 0
0 0 0 0
10.132 2.3829999 -0.88599998 10.446105
10.125 2.415 -0.88599998 10.446667
10.067 2.4349999 -0.88099998 10.394705
10.074 2.47 -0.88200003 10.409818
10.063 2.5009999 -0.88200003 10.406579
9.9350004 2.503 -0.86900002 10.282237
10.026 2.559 -0.88 10.384775
10.029 2.6099999 -0.88099998 10.400437
0 0 0 0
9.6949997 2.589 -0.847 10.070419
9.6639996 2.6129999 -0.84500003 10.046625
9.6879997 2.652 -0.84799999 10.080156
9.6160002 2.6819999 -0.84200001 10.01846
9.5559998 2.697 -0.83600003 9.9644289
9.5340004 2.724 -0.83499998 9.9506063
9.5290003 2.7550001 -0.83499998 9.9543514
9.526 2.786 -0.83600003 9.9601889
9.4329996 2.8069999 -0.82700002 9.8764706
9.3059998 2.802 -0.81400001 9.7527142
9.2530003 2.8180001 -0.80900002 9.7063694
9.3240004 2.8710001 -0.81800002 9.7902374
9.3249998 2.9360001 -0.81999999 9.8106127
9.2609997 2.9319999 -0.81400001 9.7480936
9.2390003 2.957 -0.81199998 9.7345943
9.2600002 2.9960001 -0.81599998 9.7667532
13.694 4.4790001 -1.215 14.459023
13.572 4.5100002 -1.205 14.352397
0 0 0 0
13.493 4.5780001 -1.199 14.298837
13.606 4.664 -1.2130001 14.434248
0 0 0 0
13.294 4.697 -1.1849999 14.149079
13.312 4.7270002 -1.187 14.176136
13.172 4.724 -1.174 14.042651
8.8909998 3.22 -0.787 9.4888172
13.023 4.809 -1.163 13.931172
12.991 4.8429999 -1.1619999 13.912979
0 0 0 0
12.872 4.915 -1.153 13.826605
12.808 4.9359999 -1.148 13.774137
8.6269999 3.3570001 -0.76599997 9.2887745
0 0 0 0
12.668 4.9959998 -1.137 13.664955
12.783 5.0890002 -1.151 13.806803
8.5299997 3.46 -0.82099998 9.2415657
12.501 5.1129999 -1.126 13.553068
12.428 5.1279998 -1.12 13.490959
12.399 5.1399999 -1.118 13.468657
12.334 5.2030001 -1.115 13.43287
12.288 5.23 -1.1109999 13.400827
12.244 5.256 -1.109 13.370525
12.158 5.2649999 -1.101 13.294713
12.079 5.2979999 -1.095 13.235183
12.057 5.3330002 -1.095 13.229178
0 0 0 0
0 0 0 0
8.3929996 3.8099999 -0.76200002 9.2487392
11.884 5.4359999 -1.0829999 13.113063
0 0 0 0
0 0 0 0
11.778 5.5370002 -1.158 13.06601
11.791 5.5970001 -1.082 13.096749
11.84 5.6659999 -1.089 13.170994
11.867 5.7379999 -1.176 13.233794
11.926 5.822 -1.103 13.316973
12.009 5.9099998 -1.114 13.430755
11.956 5.9310002 -1.1109999 13.392425
0 0 0 0
11.851 5.9949999 -1.104 13.326854
12.115 6.177 -1.136 13.646211
12.124 6.23 -1.1390001 13.678508
7.6430001 3.9579999 -0.755 8.6400948
12.293 6.4400001 -1.163 13.926379
12.516 6.6069999 -1.1900001 14.202775
7.6810002 4.086 -0.76499999 8.7337503
7.6960001 4.125 -0.76899999 8.7655802
7.7179999 4.1690001 -0.773 8.8059988
7.665 4.171 -0.76800001 8.7600965
7.4029999 4.073 -0.73699999 8.4815626
0 0 0 0
7.6030002 4.2459998 -0.76599997 8.7419033
7.546 4.2449999 -0.76099998 8.6914482
7.559 4.2839999 -0.764 8.7220888
7.5609999 4.3319998 -0.76700002 8.747756
7.494 4.3249998 -0.75999999 8.6858082
7.5710001 4.402 -0.77200001 8.7916794
7.8060002 4.572 -0.80400002 9.0820284
12.057 7.1100001 -1.175 14.046494
7.2649999 4.3299999 -0.73799998 8.4896269
10.592 6.3499999 -1.089 12.397536
11.902 7.1960001 -1.166 13.957063
7.0409999 4.2859998 -0.71399999 8.2737703
11.769 7.2680001 -1.158 13.880712
0 0 0 0
11.706 7.3049998 -1.155 13.84657
10.378 6.5139999 -1.079 12.30038
11.811 7.4749999 -1.173 14.026806
11.585 7.382 -1.149 13.785005
0 0 0 0
0 0 0 0
6.7779999 4.4239998 -0.69800001 8.1240549
11.373 7.4749999 -1.136 13.656913
11.408 7.6020002 -1.146 13.756678
11.253 7.5370002 -1.2130001 13.59808
11.238 7.552 -1.2130001 13.593996
6.645 4.5019999 -0.69 8.0560617
0 0 0 0
11.059 7.6479998 -1.12 13.492508
9.6459999 6.7090001 -1.026 11.794434
10.93 7.6350002 -1.109 13.37864
10.906 7.6690001 -1.109 13.378501
0 0 0 0
10.853 7.7849998 -1.112 13.402625
10.827 7.8179998 -1.1109999 13.400723
10.787 7.8150001 -1.108 13.366423
10.763 7.849 -1.108 13.366998
6.349 4.6900001 -0.676 7.9223027
10.629 7.9060001 -1.101 13.29258
10.603 7.9380002 -1.101 13.290886
10.566 7.9369998 -1.098 13.26054
10.486 7.98 -1.094 13.22246
10.464 8.0159998 -1.094 13.226806
10.411 8.0270004 -1.091 13.191359
10.425 8.0900002 -1.096 13.241221
6.1339998 4.8049998 -0.66399997 7.820158
6.1220002 4.8270001 -0.66500002 7.8243876
10.64 8.4469995 -1.1339999 13.632585
10.674 8.5290003 -1.142 13.710663
10.725 8.625 -1.152 13.810987
0 0 0 0
10.904 8.9119997 -1.183 14.132248
10.965 9.0200005 -1.194 14.248413
11.006 9.1120005 -1.2029999 14.33903
11.055 9.2110004 -1.2130001 14.440461
11.12 9.3249998 -1.225 14.564019
11.236 9.5129995 -1.2460001 14.77489
11.316 9.6429996 -1.26 14.920687
11.572 9.9250002 -1.2970001 15.300295
6.1560001 5.3099999 -0.70200002 8.1599779
5.9099998 5.1290002 -0.66799998 7.853723
9.3590002 8.1940002 -1.098 12.487518
9.408 8.2889996 -1.109 12.587607
9.29 8.2370005 -1.096 12.464088
5.9749999 5.336 -0.68900001 8.0404129
5.7719998 5.1869998 -0.66100001 7.7883162
9.1440001 8.2629995 -1.086 12.372117
9.1099997 8.3109999 -1.087 12.379272
6.198 5.6960001 -0.73400003 8.4497557
0 0 0 0
9.1429996 8.5 -1.103 12.532401
9.0799999 8.5489998 -1.101 12.519745
5.5549998 5.2490001 -0.648 7.6700673
5.454 5.1849999 -0.63499999 7.5520573
5.4559999 5.2210002 -0.63800001 7.5785108
3.9400001 3.806 -0.47299999 5.4984512
3.9389999 3.8299999 -0.47499999 5.5145483
3.9159999 3.8310001 -0.47299999 5.4986672
0 0 0 0
8.7959995 8.7629995 -1.096 12.464388
8.651 8.6739998 -1.0779999 12.297973
5.8400002 5.8790002 -0.71899998 8.3177643
8.6370001 8.7410002 -1.082 12.335866
0 0 0 0
5.9200001 6.0739999 -0.741 8.5140448
5.8559999 6.0469999 -0.73400003 8.4497166
5.7090001 5.9489999 -0.71499997 8.2761402
5.539 5.8080001 -0.69 8.0554008
5.467 5.7680001 -0.68199998 7.9764051
5.546 5.8899999 -0.69700003 8.1201
5.2410002 5.6339998 -0.65399998 7.7225485
5.3130002 5.73 -0.667 7.8425612
5.1750002 5.6160002 -0.64700001 7.6641173
5.2360001 5.7189999 -0.66000003 7.7819185
5.2249999 5.743 -0.66100001 7.7922778
5.2309999 5.823 -0.66799998 7.8560114
5.2950001 5.9310002 -0.68199998 7.979907
5.4050002 6.0749998 -0.70200002 8.1616459
5.204 5.8850002 -0.671 7.8844838
5.1090002 5.8509998 -0.662 7.7957892
5.0770001 5.8509998 -0.65899998 7.7746005
5.0120001 5.8119998 -0.65100002 7.7021613
4.9949999 5.8109999 -0.64999998 7.6902695
4.974 5.8600001 -0.653 7.7140579
4.96 5.882 -0.65399998 7.7218676
4.9809999 5.9450002 -0.66000003 7.7838926
5.2360001 6.2919998 -0.708 8.216217
5.0419998 6.0760002 -0.676 7.9244251
4.902 5.9829998 -0.65799999 7.7626576
4.8870001 6.0029998 -0.65899998 7.768723
4.4780002 5.533 -0.58999997 7.1424556
4.4530001 5.5380001 -0.588 7.1305261
4.4380002 5.5549998 -0.58899999 7.134479
4.4050002 5.566 -0.58700001 7.122426
4.388 5.5809999 -0.588 7.1237526
4.3670001 5.5910001 -0.58700001 7.1186051
4.342 5.5949998 -0.58600003 7.1063619
4.3249998 5.6079998 -0.58600003 7.1062422
4.289 5.6160002 -0.58399999 7.0905595
4.276 5.6360002 -0.58499998 7.0986547
7.6849999 10.205 -1.0549999 12.818513
4.2399998 5.6630001 -0.58499998 7.0985484
7.6009998 10.226 -1.051 12.784791
4.1869998 5.684 -0.583 7.0836935
4.1719999 5.7010002 -0.58399999 7.0885859
4.1529999 5.7119999 -0.583 7.0862007
7.4619999 10.342 -1.052 12.796292
4.1090002 5.7270002 -0.58200002 7.0725622
4.086 5.7529998 -0.583 7.0804162
4.059 5.7519999 -0.58099997 7.06389
4.046 5.7719998 -0.58200002 7.0728226
4.0170002 5.77 -0.57999998 7.0544729
4.0040002 5.789 -0.58099997 7.062726
3.984 5.8000002 -0.58099997 7.0604405
8.3129997 12.201 -1.25 14.816642
7.1069999 10.532 -1.048 12.748755
7.0900002 10.577 -1.05 12.776678
3.901 5.8540001 -0.57999998 7.0585775
3.8770001 5.8579998 -0.579 7.0485835
7.6279998 11.66 -1.168 13.982353
7.5999999 11.698 -1.17 13.999003
3.809 5.895 -0.579 7.0423536
7.7600002 12.111 -1.2130001 14.434864
7.8530002 12.342 -1.237 14.680761
3.744 5.9369998 -0.579 7.0427794
3.7290001 5.9530001 -0.579 7.0483255
3.7060001 5.9580002 -0.57800001 7.0403328
3.6889999 5.973 -0.579 7.0441957
3.654 6.0009999 -0.57999998 7.0498309
3.638 5.9949999 -0.57800001 7.0362744
3.6259999 6.0190001 -0.57999998 7.0507193
3.595 6.0089998 -0.57700002 7.0260253
0 0 0 0
6.0780001 10.384 -1.056 12.078273
6.0869999 10.473 -1.064 12.160073
6.066 10.476 -1.063 12.152075
6.0089998 10.453 -1.058 12.103415
13.938 24.485001 -2.388 28.275177
14.004 24.782 -2.415 28.56732
13.975 24.912001 -2.424 28.666779
13.926 25.195 -2.4449999 28.891167
13.943 25.32 -2.4560001 29.009335
13.91 25.448999 -2.4649999 29.106974
13.875 25.575001 -2.473 29.201233
13.806 25.833 -2.4909999 29.396507
13.801 26.018999 -2.506 29.559025
13.805 26.226 -2.523 29.744692
13.836 26.385 -2.5369999 29.900494
13.783 26.485001 -2.543 29.964867
13.709 26.752001 -2.562 30.169025
13.676 26.893999 -2.572 30.280939
10.049 19.933001 -1.851 22.399401
9.5270004 18.974001 -1.75 21.303497
9.6809998 19.423 -1.932 21.787779
8.8470001 18.028 -1.772 20.159817
8.7709999 18.017 -1.768 20.116375
8.4110003 17.341999 -1.693 19.348284
8.3509998 17.358 -1.692 19.336552
8.2360001 17.396999 -1.6900001 19.322096
8.1759996 17.412001 -1.689 19.310034
8.1330004 17.462999 -1.692 19.338173
8.066 17.462999 -1.689 19.309828
8.0190001 17.579 -1.698 19.396103
7.9429998 17.556999 -1.693 19.344398
7.8889999 17.586 -1.693 19.348642
7.8369999 17.617001 -1.694 19.355799
7.7789998 17.635 -1.693 19.348703
7.7030001 17.688 -1.6950001 19.366842
7.6459999 17.709999 -1.6950001 19.364359
7.5929999 17.739 -1.6950001 19.370049
7.631 17.985001 -1.719 19.612429
7.4510002 17.715 -1.687 19.292086
4.6690001 11.164 -1.063 12.14761
0 0 0 0
0 0 0 0
4.1880002 10.338 -0.96399999 11.195664
4.1069999 10.232 -0.95099998 11.066422
4.0279999 10.128 -0.93699998 10.939796
0 0 0 0
3.7309999 9.6020002 -0.875 10.338491
3.6470001 9.4759998 -0.86000001 10.189936
3.5639999 9.3479996 -0.84399998 10.039897
3.5 9.2690001 -0.83399999 9.942832
3.3599999 9.0279999 -0.80500001 9.6665611
3.3069999 8.9729996 -0.79799998 9.5962372
3.257 8.9239998 -0.79100001 9.5326548
0 0 0 0
3.154 8.9029999 -0.78600001 9.4778118
3.1429999 8.9160004 -0.787 9.4864578
3.118 8.9329996 -0.787 9.4941969
3.0880001 8.9370003 -0.787 9.4881554
3.0599999 8.9490004 -0.787 9.4903946
3.0039999 8.9680004 -0.787 9.4904385
2.974 8.9720001 -0.78600001 9.4846859
2.9619999 8.9840002 -0.787 9.4923687
0 0 0 0
0 0 0 0
0 0 0 0
0 0 0 0
0 0 0 0
0 0 0 0
0 0 0 0
0 0 0 0
0 0 0 0
0 0 0 0
0 0 0 0
0 0 0 0
0 0 0 0
3.0280001 10.996 -0.99000001 11.448184
2.98 11.023 -0.99199998 11.461719
0 0 0 0
0 0 0 0
2.4159999 9.3000002 -0.80299997 9.6421919
2.3970001 9.3459997 -0.80699998 9.6821785
2.382 9.4099998 -0.81300002 9.7407904
2.319 9.3470001 -0.80500001 9.6639643
5.619 23.031 -1.978 23.788918
5.5479999 23.059 -1.979 23.799458
5.4819999 23.101 -1.9809999 23.825047
5.4130001 23.132 -1.982 23.839428
5.3460002 23.176001 -1.985 23.867279
5.2470002 23.245001 -1.989 23.912699
5.178 23.278999 -1.9910001 23.930893
5.1100001 23.320999 -1.993 23.957319
5.0500002 23.395 -1.999 24.017172
4.9770002 23.417 -1.999 24.023371
4.8779998 23.493999 -2.0039999 24.078598
4.8099999 23.535 -2.007 24.105194
4.743 23.583 -2.01 24.139055
4.677 23.641001 -2.0139999 24.183207
4.6129999 23.705999 -2.0190001 24.234903
5.3559999 27.969 -2.4159999 28.579515
5.211 27.924999 -2.4100001 28.50909
5.1240001 27.947001 -2.4100001 28.514879
4.994 27.728001 -2.388 28.27516
4.9260001 27.853001 -2.3989999 28.386799
4.835 27.847 -2.3970001 28.365089
4.651 27.556999 -2.368 28.046879
4.5300002 27.368999 -2.349 27.840633
4.408 27.163 -2.3280001 27.616636
4.2919998 26.983999 -2.3099999 27.420679
4.1760001 26.797001 -2.2920001 27.217117
4.0609999 26.613001 -2.273 27.016848
3.878 26.243999 -2.237 26.623119
3.7639999 26.039 -2.217 26.402884
3.655 25.856001 -2.1989999 26.205482
3.549 25.693001 -2.1830001 26.028662
3.4449999 25.535 -2.1670001 25.857302
3.277 25.184999 -2.1329999 25.486713
3.1760001 25.021999 -2.1170001 25.311443
3.075 24.854 -2.1010001 25.131477
2.974 24.674999 -2.0829999 24.940712
2.8770001 24.518 -2.0680001 24.772688
2.7349999 24.302 -2.0469999 24.540937
2.665 24.364 -2.052 24.59507
2.5910001 24.4 -2.0539999 24.623001
2.5150001 24.412001 -2.0550001 24.6271
2.3670001 24.489 -2.0599999 24.689217
2.378 24.997999 -2.1070001 25.199093
2.3099999 25.128 -2.118 25.322685
1.967 22.191999 -1.847 22.355431
1.8839999 22.041 -1.832 22.197104
1.724 21.787001 -1.808 21.929762
1.649 21.704 -1.8 21.840853
1.617 21.740999 -1.803 21.875479
1.55 21.761999 -1.804 21.891586
1.484 21.804001 -1.808 21.929104
1.342 21.738001 -1.801 21.853724
1.267 21.614 -1.789 21.72489
1.225 21.493 -1.778 21.601179
1.155 21.434999 -1.772 21.539108
1.033 21.712999 -1.7970001 21.811708
0.96399999 21.694 -1.795 21.789469
0.88999999 21.565001 -1.783 21.656879
0.85299999 21.476999 -1.775 21.567099
0.77899998 21.320999 -1.76 21.407696
0.634 20.975 -1.728 21.055607
0.57700002 21.302999 -1.758 21.383202
0.50300002 21.007999 -1.73 21.085112
0.433 20.84 -1.715 20.91493
0.333 20.327999 -1.7970001 20.409988
0.26499999 19.990999 -1.7640001 20.070425
0.20100001 19.884001 -1.753 19.962135
0.169 19.783001 -1.743 19.860355
0.045000002 19.594999 -1.724 19.670744
-0.017000001 19.490999 -1.714 19.566225
-0.077 19.396999 -1.705 19.471943
-0.13699999 19.282 -1.694 19.356752
-0.197 19.177999 -1.684 19.2528
-0.28400001 19.003 -1.6670001 19.078091
-0.34200001 18.913 -1.658 18.988615
-0.39899999 18.813999 -1.648 18.890253
-0.456 18.729 -1.64 18.806196
-0.51200002 18.624001 -1.63 18.702204
-0.59399998 18.443001 -1.612 18.522842
-0.64899999 18.357 -1.604 18.43837
-0.70300001 18.273001 -1.596 18.356033
-0.75700003 18.181999 -1.587 18.266819
-0.81 18.087999 -1.5779999 18.174761
-0.86299998 18.021 -1.572 18.110008
-0.93900001 17.854 -1.556 17.946259
-0.991 17.774 -1.548 17.868784
-1.0420001 17.684999 -1.54 17.78248
-1.0930001 17.608 -1.533 17.70837
-1.142 17.509001 -1.523 17.612177
-1.214 17.361 -1.5089999 17.468691
-1.262 17.266001 -1.5 17.376923
-1.311 17.198 -1.494 17.312479
-1.358 17.110001 -1.4859999 17.228014
-1.409 17.068001 -1.482 17.190063
-1.473 16.879 -1.464 17.006283
-1.5190001 16.795 -1.456 16.926291
-1.567 16.749001 -1.452 16.884691
-1.614 16.684 -1.446 16.824142
-1.661 16.624001 -1.441 16.768805
-1.724 16.471001 -1.426 16.622259
-1.767 16.391001 -1.419 16.546926
-1.811 16.316 -1.4119999 16.476812
-1.855 16.245001 -1.406 16.41091
-1.942 16.114 -1.3940001 16.290354
-1.983 16.028999 -1.386 16.210556
-2 15.961 -1.38 16.144903
-2.0439999 15.907 -1.375 16.096621
-2.0829999 15.82 -1.367 16.014992
-2.168 15.704 -1.357 15.910917
-2.2079999 15.632 -1.35 15.844784
-2.2249999 15.573 -1.345 15.788539
-2.266 15.515 -1.34 15.736759
-2.346 15.388 -1.329 15.622436
-2.3859999 15.328 -1.323 15.568909
-2.424 15.255 -1.317 15.502428
-2.438 15.19 -1.311 15.440164
-2.517 15.075 -1.301 15.338954
-2.5550001 15.012 -1.295 15.282841
-2.5910001 14.943 -1.289 15.220645
-2.6289999 14.884 -1.284 15.168841
-2.6670001 14.828 -1.28 15.120214
-2.7179999 14.714 -1.2690001 15.016646
-2.7520001 14.639 -1.263 14.948879
-2.79 14.589 -1.2589999 14.906646
-2.8310001 14.557 -1.256 14.88282
-2.8610001 14.47 -1.249 14.802913
-2.9089999 14.357 -1.239 14.70105
-2.9460001 14.31 -1.235 14.662205
-2.9809999 14.254 -1.23 14.614232
-3.0139999 14.188 -1.224 14.556157
-3.05 14.142 -1.221 14.518592
-3.0840001 14.084 -1.216 14.468889
-3.135 13.999 -1.209 14.396593
-3.1659999 13.935 -1.2029999 14.340676
-3.2 13.88 -1.199 14.294475
-3.2320001 13.824 -1.194 14.24691
-3.2620001 13.755 -1.188 14.186332
-3.3099999 13.672 -1.181 14.11646
-3.3440001 13.625 -1.178 14.078731
-3.372 13.557 -1.1720001 14.019137
-3.404 13.503 -1.168 13.97435
-3.434 13.444 -1.163 13.924298
-3.4749999 13.343 -1.154 13.836292
