# .PCD v0.7 - Point Cloud Data file format
VERSION 0.7
FIELDS x y z intensity
SIZE 4 4 4 4
TYPE F F F F
COUNT 1 1 1 1
WIDTH 1326
HEIGHT 1
VIEWPOINT 0 0 0 1 0 0 0
POINTS 1326
DATA ascii
-14.201 -3.9760001 -0.001 14.747101
-14.237 -4.0100002 -0.0020000001 14.790953
-14.288 -4.073 -0.003 14.857196
-14.35 -4.1890001 -0.0040000002 14.948922
-14.365 -4.243 -0.0040000002 14.978528
-14.41 -4.3049998 -0.0049999999 15.03932
-14.418 -4.3319998 -0.0049999999 15.054732
-14.422 -4.3829999 -0.0060000001 15.073315
-14.438 -4.487 -0.0060000001 15.119162
-14.45 -4.5409999 -0.0070000002 15.146723
-14.461 -4.5970001 0.086000003 15.174332
-14.477 -4.652 0.086000003 15.206316
-14.498 -4.684 0.086000003 15.236116
-14.523 -4.7930002 0.085000001 15.293711
-14.512 -4.8400002 0.085000001 15.298071
-14.54 -4.9000001 0.085000001 15.34369
-14.549 -4.954 0.085000001 15.369539
-14.564 -5.0359998 0.083999999 15.410336
-14.587 -5.0949998 0.083999999 15.451428
-14.585 -5.1459999 0.083999999 15.466434
-14.593 -5.1999998 0.083999999 15.492021
-14.605 -5.256 0.083999999 15.522197
-14.611 -5.3099999 0.082999997 15.546199
-14.657 -5.4050002 0.082999997 15.622053
-14.64 -5.4510002 0.082999997 15.622096
-14.654 -5.5089998 0.082999997 15.655532
-14.667 -5.566 0.082000002 15.687829
-14.728 -5.6420002 0.082000002 15.771901
-15.031 -5.8119998 0.079000004 16.115725
-15.046 -5.9000001 0.079000004 16.161633
-14.972 -5.9250002 0.079000004 16.101946
-16.504999 -6.5890002 0.066 17.771727
-16.399 -6.6059999 0.067000002 17.679676
-15.105 -6.1420002 0.077 16.306168
-16.076 -6.6240001 0.068999998 17.38735
-16.049999 -6.6719999 0.068999998 17.381681
-15.151 -6.3559999 0.075999998 16.430378
-15.147 -6.4099998 0.075999998 16.447659
-15.167 -6.4749999 0.075999998 16.491491
-15.199 -6.573 0.075000003 16.559576
-15.222 -6.6399999 0.075000003 16.607363
-15.205 -6.6900001 0.075000003 16.611855
-15.219 -6.7529998 0.075000003 16.650122
-15.17 -6.7880001 0.075000003 16.61961
-15.007 -6.829 0.075999998 16.487907
-14.965 -6.8670001 0.075999998 16.4655
-14.96 -6.8930001 0.075999998 16.471819
-14.966 -6.9530001 0.075999998 16.502459
-14.994 -7.0809999 0.075000003 16.582106
-15.019 -7.1500001 0.075000003 16.634256
-15.011 -7.204 0.075000003 16.650326
-15.024 -7.2399998 0.074000001 16.677639
-15.032 -7.302 0.074000001 16.711842
-15.06 -7.4320002 0.074000001 16.794157
-15.077 -7.5 0.072999999 16.839575
-15.104 -7.572 0.072999999 16.895897
-15.114 -7.6370001 0.071999997 16.934048
-15.147 -7.743 0.071999997 17.011492
-15.164 -7.8119998 0.071000002 17.058113
-15.171 -7.8759999 0.071000002 17.093731
-15.191 -7.947 0.071000002 17.144279
-15.199 -8.0120001 0.071000002 17.181583
-15.209 -8.0780001 0.07 17.221285
-15.259 -8.1969995 0.068999998 17.321451
-15.242 -8.25 0.068999998 17.331642
-15.259 -8.3210001 0.068999998 17.380474
-15.334 -8.4239998 0.068000004 17.495712
-15.237 -8.434 0.068999998 17.415606
-15.24 -8.5290003 0.068000004 17.464422
-15.228 -8.585 0.068000004 17.481384
-15.217 -8.6420002 0.068000004 17.499882
-15.204 -8.698 0.068000004 17.516319
-15.199 -8.7580004 0.068000004 17.541859
-15.178 -8.8100004 0.068000004 17.549713
-15.173 -8.9029999 0.067000002 17.592266
-15.148 -8.9519997 0.067000002 17.595587
-15.648 -9.3129997 0.061999999 18.20977
-15.14 -9.0760002 0.067000002 17.652136
-15.186 -9.1689997 0.066 17.739491
-15.279 -9.29 0.064999998 17.881727
-15.462 -9.5010004 0.063000001 18.147905
-15.531 -9.6110001 0.061999999 18.264368
-15.55 -9.6899996 0.061999999 18.322186
-15.58 -9.7770004 0.061000001 18.393745
-15.613 -9.9350004 0.059999999 18.506042
-15.66 -9.9989996 0.059 18.580072
-15.654 -10.064 0.059 18.610086
-15.679 -10.15 0.059 18.677713
-15.709 -10.31 0.057999998 18.790215
-15.711 -10.382 0.057999998 18.831484
-15.734 -10.468 0.057 18.898174
-15.757 -10.519 0.057 18.945597
-15.779 -10.605 0.056000002 19.011734
-15.811 -10.772 0.055 19.131824
-15.815 -10.847 0.055 19.17745
-15.842 -10.939 0.054000001 19.251846
-15.83 -10.967 0.054000001 19.257906
-15.851 -11.13 0.052999999 19.368374
-15.848 -11.202 0.052999999 19.407387
-15.865 -11.289 0.052000001 19.471581
-15.873 -11.37 0.052000001 19.525156
-15.893 -11.46 0.050999999 19.593918
-16.174 -11.778 0.048 20.008045
-16.195999 -11.872 0.048 20.081261
-16.215 -11.965 0.046999998 20.151667
-16.229 -12.054 0.046999998 20.215874
-16.249001 -12.148 0.046 20.288076
-16.259001 -12.235 0.046 20.348278
-16.319 -12.4 0.044 20.495651
-16.330999 -12.49 0.044 20.559755
-16.344999 -12.583 0.043000001 20.627476
-16.379999 -12.692 0.043000001 20.721802
-16.357 -12.757 0.041999999 20.743536
-16.301001 -12.796 0.043000001 20.723467
-16.25 -12.88 0.041999999 20.735445
-16.202 -12.925 0.043000001 20.725885
-16.23 -13.03 0.041999999 20.813351
-16.245001 -13.127 0.041000001 20.885878
-16.252001 -13.217 0.041000001 20.94799
-16.313 -13.394 0.039999999 21.107222
-16.367001 -13.524 0.039000001 21.231552
-12.807 -10.658 0.075000003 16.661867
-12.795 -10.716 0.074000001 16.689821
-12.786 -10.777 0.074000001 16.722172
-12.816 -10.871 0.072999999 16.805769
-12.821 -10.98 0.072999999 16.880278
-12.817 -11.046 0.072999999 16.920252
-12.82 -11.119 0.071999997 16.970261
-12.816 -11.187 0.071999997 17.011879
-12.81 -11.324 0.071000002 17.097782
-12.829 -11.376 0.071000002 17.146477
-12.835 -11.453 0.07 17.202133
-12.828 -11.52 0.07 17.241604
-12.829 -11.594 0.07 17.291876
-12.83 -11.742 0.068999998 17.392189
-12.83 -11.816 0.068000004 17.44223
-12.854 -11.875 0.068000004 17.499874
-12.852 -11.948 0.068000004 17.548027
-12.877 -12.123 0.067000002 17.685835
-12.881 -12.203 0.066 17.743668
-12.901 -12.299 0.064999998 17.824293
-12.911 -12.386 0.064999998 17.891649
-12.941 -12.454 0.064000003 17.960392
-12.975 -12.645 0.063000001 18.117689
-12.92 -12.67 0.063000001 18.095837
-12.974 -12.803 0.061999999 18.227598
-12.864 -12.775 0.063000001 18.129728
-13.108 -13.139 0.059999999 18.559542
-13.154 -13.268 0.059 18.683443
-13.156 -13.354 0.057999998 18.746014
-13.121 -13.402 0.057999998 18.755735
0 0 0 0
-13.222 -13.719 0.056000002 19.053488
-13.535 -14.131 0.052000001 19.567425
-13.462 -14.143 0.052000001 19.52569
-13.399 -14.167 0.052000001 19.499739
-13.347 -14.2 0.052000001 19.488077
-18.27 -19.547001 -0.0049999999 26.755899
-18.163 -19.556 -0.0040000002 26.689543
-18.643 -20.261 -0.011 27.533066
-18.586 -20.327 -0.011 27.543175
-18.483999 -20.344 -0.011 27.487028
-13.403 -14.855 0.048 20.007841
-13.371 -14.914 0.048 20.03031
-18.141001 -20.413 -0.0089999996 27.309093
-18.052999 -20.443001 -0.0089999996 27.273195
-17.952999 -20.459 -0.0089999996 27.219128
-17.909 -20.538 -0.0089999996 27.24962
-17.972 -20.874001 -0.011 27.544815
-18.004 -21.045 -0.012 27.695417
-18.070999 -21.190001 -0.014 27.84919
-18.125 -21.388 -0.015 28.035021
-18.155001 -21.559999 -0.016000001 28.185774
-18.221001 -21.916 -0.018999999 28.501163
-18.281 -22.120001 0.162 28.696962
-18.348 -22.271999 0.162 28.856842
-18.416 -22.643 0.161 29.186991
-18.431 -22.808001 0.161 29.324606
-18.424999 -22.947001 0.161 29.42909
-18.416 -23.084999 0.161 29.531208
-18.395 -23.208 0.161 29.614408
-18.396 -23.434999 0.16 29.793247
-18.775 -24.075001 0.15899999 30.530828
-18.708 -24.145 0.15899999 30.544975
-18.67 -24.253 0.15899999 30.607224
-18.701 -24.451 0.15899999 30.783178
-18.841 -24.877001 0.15800001 31.206945
-18.909 -25.131001 0.15800001 31.450636
-18.940001 -25.337999 0.15700001 31.63483
-18.969 -25.544001 0.15700001 31.817348
-19.223 -26.056999 0.156 32.380787
-19.129 -26.101 0.156 32.36055
-19.437 -26.785999 0.155 33.095478
-19.337999 -26.827 0.155 33.070683
-19.291 -26.940001 0.155 33.135033
-19.334 -27.18 0.155 33.355358
-19.389999 -27.441 0.154 33.600658
-19.511999 -27.798 0.154 33.962784
-19.612 -28.224001 0.153 34.369289
-20.121 -29.153 0.152 35.422806
-20.197001 -29.459999 0.15099999 35.718807
-20.107 -29.528999 0.15099999 35.725006
-19.983999 -29.547001 0.15099999 35.670834
-19.98 -29.844 0.15099999 35.915005
-20.051001 -30.153999 0.15000001 36.212273
-20.114 -30.455999 0.15000001 36.498814
-20.165001 -30.743 0.15000001 36.766586
-20.202 -31.013 0.149 37.012825
-20.216 -31.356001 0.149 37.308281
-20.164 -31.492001 0.149 37.394588
-20.136999 -31.669001 0.148 37.52927
-20.174999 -31.950001 0.148 37.786968
-20.643 -32.922001 0.146 38.858887
-20.785 -33.616001 0.145 39.523067
-20.84 -33.824001 0.145 39.728951
-20.818001 -34.027 0.145 39.890438
-20.789 -34.221001 0.14399999 40.040981
-20.743999 -34.390999 0.14399999 40.163105
-21.246 -35.730999 0.142 41.570629
-21.379999 -36.084 0.141 41.942574
-21.469999 -36.498001 0.141 42.344833
-21.504 -36.820999 0.14 42.640682
-24.693001 -42.905998 0.13 49.504402
-24.542 -42.956001 0.13 49.472668
-24.385 -42.993 0.13 49.427151
-24.297001 -42.995998 0.13 49.386402
-24.141001 -43.034 0.13 49.342983
-23.716999 -42.908001 0.131 49.026623
-23.653999 -43.113998 0.13 49.176678
-23.497999 -43.148998 0.13 49.132565
-23.343 -43.188 0.13 49.092934
-23.101 -43.224998 0.131 49.010956
-22.948 -43.264999 0.131 48.974361
-5.4910002 -10.43 0.039999999 11.787179
-5.4169998 -10.369 0.041999999 11.698795
-5.3660002 -10.351 0.041999999 11.659285
-5.3579998 -10.414 0.041000001 11.711585
-5.355 -10.489 0.039999999 11.776959
-5.2880001 -10.481 0.041000001 11.739505
-5.2459998 -10.479 0.041000001 11.718858
-5.2129998 -10.496 0.041000001 11.719346
-5.2030001 -10.559 0.041000001 11.771379
-5.1680002 -10.571 0.041000001 11.76673
-5.151 -10.664 0.039999999 11.842943
-5.1129999 -10.671 0.039999999 11.832777
-5.0999999 -10.731 0.039000001 11.881325
-5.0440001 -10.698 0.039999999 11.827542
-5.0100002 -10.714 0.039999999 11.827574
-5.0640001 -10.92 0.037 12.037105
-5.5570002 -12.138 0.017999999 13.349592
-5.533 -12.188 0.017999999 13.385132
-5.5100002 -12.238 0.017000001 13.421216
-5.4970002 -12.314 0.017000001 13.485248
-5.4559999 -12.325 0.017000001 13.478644
-5.4039998 -12.311 0.017000001 13.444859
-5.4689999 -12.623 0.013 13.756825
-5.4970002 -12.798 0.0099999998 13.928601
0 0 0 0
-23.902 -56.598 0.111 61.43819
-23.660999 -56.771 0.111 61.504486
-23.415001 -56.682999 0.111 61.328922
0 0 0 0
-7.0809999 -17.462999 0.057 18.844101
-7.112 -17.695999 0.056000002 19.07176
-22.5 -56.724998 0.112 61.024487
-22.492001 -57.230999 0.111 61.492191
-22.318001 -57.317001 0.111 61.508892
0 0 0 0
0 0 0 0
0 0 0 0
0 0 0 0
0 0 0 0
0 0 0 0
0 0 0 0
0 0 0 0
0 0 0 0
0 0 0 0
0 0 0 0
0 0 0 0
-4.5580001 -13.574 0.0049999999 14.31883
-4.2690001 -12.842 0.016000001 13.532982
-4.2020001 -12.776 0.017000001 13.449286
-4.145 -12.803 0.017000001 13.457271
-4.1040001 -12.816 0.017000001 13.457079
0 0 0 0
-4.04 -12.895 0.016000001 13.513063
-4.0019999 -12.913 0.016000001 13.518944
-3.904 -12.809 0.017999999 13.390743
-3.868 -12.837 0.017999999 13.407099
-3.8399999 -12.891 0.017000001 13.45079
-3.7980001 -12.897 0.017000001 13.444616
-4.631 -15.926 0.075000003 16.585814
0 0 0 0
-9.4700003 -33.456001 0.153 34.770798
-9.415 -33.668999 0.152 34.96093
-4.4790001 -16.257999 0.072999999 16.863846
-4.4369998 -16.305 0.072999999 16.898087
-9.1969995 -34.125 0.152 35.342941
-4.3540001 -16.406 0.071999997 16.974077
-8.8120003 -33.747002 0.152 34.878857
-8.6359997 -33.502998 0.153 34.59848
-8.5380001 -33.561001 0.153 34.63036
-8.4169998 -33.526001 0.153 34.566776
-8.2259998 -33.431 0.153 34.428509
-8.1420002 -33.540001 0.153 34.51445
-8.0209999 -33.504002 0.153 34.451096
-7.8569999 -33.278 0.153 34.193291
-7.7919998 -33.956001 0.152 34.83889
-3.9690001 -17.6 0.064000003 18.042091
-3.9389999 -17.591999 0.064000003 18.027708
-3.8740001 -17.563999 0.064000003 17.986273
-3.835 -17.648001 0.064000003 18.05999
-3.7460001 -17.503 0.064999998 17.89949
-3.6919999 -17.523001 0.064999998 17.907837
-3.5699999 -17.487 0.064999998 17.847809
-3.5510001 -17.535999 0.064999998 17.892038
-3.5079999 -17.608 0.064000003 17.954159
-2.0880001 -10.801 0.050999999 11.001088
-2.0510001 -10.79 0.052000001 10.983324
-2.023 -10.828 0.050999999 11.015476
-1.965 -10.704 0.052999999 10.882998
-1.903 -10.646 0.054000001 10.81488
-1.875 -10.682 0.054000001 10.845445
-1.837 -10.664 0.054000001 10.8212
-1.803 -10.666 0.054000001 10.817453
-1.768 -10.66 0.054000001 10.805755
-1.733 -10.661 0.054000001 10.801071
-1.698 -10.762 0.052999999 10.895259
-1.655 -10.708 0.054000001 10.835276
-1.615 -10.674 0.054000001 10.79562
-1.591 -10.744 0.052999999 10.861291
-1.573 -10.856 0.052000001 10.969493
-3.5739999 -25.542999 0.003 25.791826
-3.0009999 -21.98 0.030999999 22.183943
-2.9260001 -21.945 0.030999999 22.139229
-2.8529999 -21.927 0.032000002 22.111853
-2.7850001 -21.938 0.032000002 22.114092
-2.7160001 -21.945999 0.032000002 22.113447
-2.0420001 -17.209 0.068999998 17.329865
-1.967 -17.039 0.071000002 17.152308
-1.911 -17.027 0.071000002 17.13405
-1.853 -16.990999 0.071000002 17.09189
-1.7970001 -16.973 0.071000002 17.06801
-1.737 -16.915001 0.071999997 17.004107
-1.669 -17.034 0.071000002 17.115717
-1.6160001 -17.052999 0.071000002 17.129543
-1.553 -16.955 0.071999997 17.026127
-1.508 -17.052999 0.071000002 17.119694
-1.4630001 -17.157 0.07 17.219406
-1.358 -16.861 0.072999999 16.915758
-1.018 -13.112 0.021 13.151477
-1.242 -16.738001 0.074000001 16.78418
-1.194 -16.806999 0.072999999 16.849516
-0.89200002 -13.087 0.022 13.117382
-0.82999998 -13.073 0.022 13.09934
-0.71899998 -11.883 0.039000001 11.904798
-0.667 -11.628 0.041999999 11.64719
-0.57499999 -11.238 0.048 11.252803
-0.53100002 -11.048 0.050999999 11.060871
-0.48800001 -10.85 0.052999999 10.861098
-0.465 -10.707 0.055 10.717234
-0.384 -10.39 -0.013 10.397102
-0.34599999 -10.218 -0.0089999996 10.223861
-0.308 -10.069 -0.0060000001 10.073711
-0.27200001 -9.9239998 -0.003 9.9277267
-0.237 -9.783 -0 9.7858706
-0.20200001 -9.6059999 0.0040000002 9.6081247
-0.152 -9.3310003 0.0089999996 9.332243
-0.12 -9.1969995 0.012 9.1977901
-0.090000004 -9.0469999 0.015 9.0474596
-0.059999999 -8.9399996 0.017999999 8.9402189
-0.030999999 -8.8219995 0.02 8.8220768
-0.003 -8.7180004 0.022 8.7180281
0.037999999 -8.4980001 0.027000001 8.4981279
0.064000003 -8.3699999 0.029999999 8.3702984
0.089000002 -8.2880001 0.030999999 8.2885361
0.114 -8.1490002 0.034000002 8.149869
0.138 -8.059 0.035999998 8.0602617
0.17299999 -7.882 0.039999999 7.8839998
0.19499999 -7.7540002 0.041999999 7.7565656
0.214 -7.6669998 0.0049999999 7.6699877
0.235 -7.5879998 0.0070000002 7.5916409
0.255 -7.494 0.0089999996 7.4983425
0.27500001 -7.4070001 0.011 7.4121118
0.303 -7.2459998 0.016000001 7.2523499
0.32100001 -7.145 0.017999999 7.1522298
0.34 -7.0780001 0.02 7.0861897
0.35699999 -6.987 0.022 6.9961491
0.375 -6.914 0.024 6.9242039
0.398 -6.7659998 0.028000001 6.7777534
0.417 -6.7309999 0.028999999 6.7439671
0.43099999 -6.6259999 0.032000002 6.6400795
0.46399999 -6.5 0.035 6.5166345
0.47999999 -6.4499998 0.035999998 6.467936
0.495 -6.3460002 0.001 6.3652763
0.509 -6.2789998 0.003 6.2995977
0.52200001 -6.1890001 0.0060000001 6.2109776
0.52899998 -6.1529999 0.0070000002 6.1757026
0.55500001 -6.0100002 0.011 6.0355821
0.57099998 -5.9759998 0.012 6.0032291
0.58600003 -5.9310002 0.014 5.9598956
0.597 -5.855 0.016000001 5.8853793
0.602 -5.8080001 0.017000001 5.8391404
0.61699998 -5.7709999 0.018999999 5.8039203
0.64200002 -5.6690001 0.022 5.7052789
0.65499997 -5.618 0.023 5.6561007
0.66500002 -5.5539999 0.025 5.5937257
0.67900002 -5.52 0.026000001 5.5616646
0.68000001 -5.4580002 0.028000001 5.5002685
0.71600002 -5.4569998 -0.0080000004 5.5037775
0.72500002 -5.3909998 -0.0060000001 5.4395351
0.73699999 -5.355 -0.0040000002 5.4054794
0.74299997 -5.3379998 -0.0040000002 5.3894625
0.75999999 -5.2210002 0.001 5.2760253
0.773 -5.197 0.001 5.2541738
0.78299999 -5.1589999 0.003 5.218082
0.79799998 -5.1440001 0.003 5.2055306
0.80599999 -5.0900002 0.0049999999 5.1534224
0.81599998 -5.006 0.0080000004 5.0720763
0.82499999 -4.9660001 0.0099999998 5.0340719
0.83700001 -4.9419999 0.011 5.0123897
0.84100002 -4.8759999 0.013 4.9480124
0.85399997 -4.8579998 0.014 4.9325123
0.861 -4.8119998 0.016000001 4.8884478
0.87599999 -4.7639999 0.017000001 4.8438993
0.88499999 -4.7319999 0.017999999 4.8140807
0.89999998 -4.7290001 0.017999999 4.8139138
0.91299999 -4.7189999 0.018999999 4.8065462
0.92500001 -4.7020001 0.018999999 4.7921591
0.95499998 -4.737 0.017999999 4.8323407
0.96600002 -4.7119999 0.018999999 4.8100376
0.98900002 -4.75 0.017000001 4.8518977
1.003 -4.7410002 0.017000001 4.8459654
1.015 -4.724 0.017999999 4.8318448
1.044 -4.7529998 0.016000001 4.866333
1.062 -4.7589998 0.016000001 4.8760824
1.072 -4.7360001 0.017000001 4.8558388
1.097 -4.7779999 0.015 4.902338
1.107 -4.7529998 0.016000001 4.8802366
1.138 -4.7820001 0.014 4.9155636
1.153 -4.7789998 0.014 4.916141
1.168 -4.7750001 0.014 4.9157958
1.188 -4.789 0.014 4.9341726
1.202 -4.7810001 0.014 4.9298034
1.239 -4.8010001 0.013 4.9583158
1.242 -4.7810001 0.014 4.9397087
1.266 -4.8119998 0.012 4.9757652
1.276 -4.7870002 0.013 4.9541616
1.299 -4.8140001 0.012 4.9861951
1.334 -4.823 0.011 5.0040989
1.344 -4.7989998 0.012 4.9836612
1.3609999 -4.8299999 0.011 5.0181012
1.376 -4.8260002 0.011 5.0183434
1.408 -4.8249998 0.0099999998 5.0262494
1.429 -4.8369999 0.0099999998 5.0436802
1.4450001 -4.8369999 0.0089999996 5.0482345
1.46 -4.8319998 0.0089999996 5.0477619
1.472 -4.8429999 0.0089999996 5.06177
1.505 -4.8410001 0.0089999996 5.0695548
1.53 -4.869 0.0070000002 5.103735
1.545 -4.862 0.0070000002 5.1015801
1.558 -4.8499999 0.0080000004 5.0941072
1.577 -4.882 0.0060000001 5.1303887
1.604 -4.862 0.0070000002 5.1197567
1.623 -4.8660002 0.0060000001 5.1295342
1.643 -4.8759999 0.0060000001 5.1453729
1.658 -4.8709998 0.0060000001 5.1454482
1.686 -4.9000001 0.0040000002 5.1819506
1.716 -4.9130001 0.003 5.2040596
1.729 -4.902 0.0040000002 5.1979861
1.752 -4.9169998 0.003 5.2198086
1.766 -4.908 0.003 5.2160549
1.789 -4.921 0.0020000001 5.2361021
1.802 -4.9089999 0.0020000001 5.2292914
1.832 -4.9200001 0.0020000001 5.2500124
1.853 -4.927 0.001 5.2639284
1.8710001 -4.9289999 0.001 5.272161
1.893 -4.9390001 0 5.2893453
1.906 -4.928 0 5.2837505
1.939 -4.9429998 -0.001 5.3097053
1.9579999 -4.9460001 -0.001 5.3194628
1.9809999 -4.9569998 -0.0020000001 5.3381844
1.995 -4.9489999 -0.0020000001 5.3359747
2.02 -4.9640002 -0.003 5.3592639
2.0339999 -4.954 -0.003 5.3553042
2.0680001 -4.9699998 -0.0040000002 5.3830786
2.0869999 -4.9710002 -0.0040000002 5.3913288
2.1129999 -4.9889998 -0.0049999999 5.4180174
2.1329999 -4.9910002 -0.0049999999 5.4276876
2.151 -4.9899998 -0.0060000001 5.4338694
2.175 -4.9809999 -0.0060000001 5.4351654
2.207 -5.0110002 -0.0070000002 5.475493
2.2279999 -5.0170002 -0.0080000004 5.4894753
2.2360001 -4.9530001 0.029999999 5.4344096
2.266 -4.9780002 0.028999999 5.4695597
2.2780001 -4.9619999 0.029999999 5.4600024
2.296 -4.96 0.028999999 5.4657164
2.3139999 -4.98 0.028999999 5.4914331
2.332 -4.9780002 0.028000001 5.4972262
2.3770001 -4.993 0.027000001 5.5300007
2.3929999 -4.9850001 0.027000001 5.5296836
2.4170001 -4.9959998 0.027000001 5.5500116
2.431 -5.0040002 0.026000001 5.5633135
2.4760001 -5.0159998 0.025 5.5938764
2.4990001 -5.0240002 0.025 5.6112571
2.5139999 -5.0149999 0.025 5.6099057
2.5369999 -5.0209999 0.024 5.6256008
2.562 -5.0310001 0.024 5.6458287
2.5910001 -5.0300002 0.023 5.6581545
2.6159999 -5.039 0.023 5.6776323
2.6359999 -5.04 0.022 5.687757
2.6600001 -5.0469999 0.022 5.705111
2.687 -5.0599999 0.021 5.7292247
2.7049999 -5.0549998 0.021 5.7332792
2.7409999 -5.0650001 0.02 5.759141
2.7650001 -5.0710001 0.02 5.7758694
2.7880001 -5.0760002 0.018999999 5.7912941
2.8150001 -5.0869999 0.017999999 5.8139586
2.836 -5.0869999 0.017999999 5.8241553
2.8770001 -5.105 0.017000001 5.8599014
2.8959999 -5.1009998 0.017000001 5.8657737
2.9219999 -5.1090002 0.016000001 5.8855948
2.947 -5.1149998 0.015 5.9032412
2.964 -5.1079998 0.015 5.9056907
2.9979999 -5.1300001 0.014 5.9418097
3.0350001 -5.138 0.013 5.9674478
3.0569999 -5.1389999 0.013 5.9795265
3.086 -5.1500001 0.012 6.0038357
3.109 -5.152 0.012 6.0174022
3.1530001 -5.1700001 0.011 6.0556116
3.1700001 -5.1620002 0.0099999998 6.0576601
3.2 -5.1739998 0.0099999998 6.0836148
3.2249999 -5.177 0.0089999996 6.0993471
3.2720001 -5.1810002 0.0080000004 6.1277084
3.303 -5.1939998 0.0070000002 6.1552815
3.3180001 -5.1989999 0.0070000002 6.1675582
3.3469999 -5.2090001 0.0060000001 6.1916175
3.3670001 -5.2030001 0.0060000001 6.1974134
3.415 -5.2069998 0.0049999999 6.2269654
3.4519999 -5.2270002 0.0040000002 6.2640123
3.4760001 -5.2270002 0.003 6.2772698
3.4860001 -5.2249999 0.003 6.2811484
3.549 -5.2480001 0.0020000001 6.3353696
3.576 -5.2529998 0.001 6.3546662
3.599 -5.25 0.001 6.3651628
3.6789999 -5.3179998 0.035999998 6.4666419
3.678 -5.2779999 -0.0020000001 6.433115
3.7309999 -5.3200002 0.035 6.4979987
3.7590001 -5.3249998 0.035 6.5181994
3.7809999 -5.3200002 0.035 6.5268359
3.8399999 -5.349 0.033 6.5847163
3.8659999 -5.3499999 0.033 6.6007228
3.9030001 -5.3649998 0.032000002 6.6345801
3.9330001 -5.3699999 0.030999999 6.6563015
3.967 -5.382 0.029999999 6.6860981
4.0180001 -5.3969998 0.028999999 6.7285047
4.0430002 -5.395 0.028999999 6.7418628
4.0799999 -5.408 0.028000001 6.7744851
4.1110001 -5.414 0.027000001 6.7979736
4.1430001 -5.4200001 0.027000001 6.8221388
4.177 -5.4289999 0.026000001 6.8499665
4.1820002 -5.3829999 0.027000001 6.816637
4.184 -5.3509998 0.028000001 6.7926311
4.1999998 -5.3379998 0.028000001 6.7922769
4.2179999 -5.3260002 0.028000001 6.7940111
4.2610002 -5.3449998 0.026000001 6.8356285
4.3000002 -5.3590002 0.026000001 6.8709211
4.2989998 -5.3070002 0.027000001 6.8298154
4.3260002 -5.3060002 0.026000001 6.8460641
4.3569999 -5.309 0.026000001 6.8680134
4.3969998 -5.323 0.025 6.904242
4.4260001 -5.3249998 0.024 6.9242816
4.4559999 -5.3260002 0.024 6.944263
4.5250001 -5.3569999 0.022 7.0123858
4.5549998 -5.3579998 0.021 7.0325408
4.5949998 -5.3709998 0.02 7.0683846
4.6339998 -5.382 0.02 7.1021323
4.6599998 -5.3779998 0.018999999 7.1160975
4.7319999 -5.408 0.017000001 7.1859984
4.7620001 -5.408 0.017000001 7.2057896
4.7979999 -5.414 0.016000001 7.2341175
4.8429999 -5.4299998 0.015 7.2759719
4.8740001 -5.4320002 0.014 7.29813
4.9460001 -5.4590001 0.013 7.3663945
4.9819999 -5.4640002 0.012 7.3943062
5.026 -5.4770002 0.011 7.4335947
5.0650001 -5.4850001 0.0099999998 7.4658923
5.099 -5.487 0.0089999996 7.4904642
5.177 -5.5180001 0.0070000002 7.5663538
5.2129998 -5.5219998 0.0070000002 7.5939384
5.257 -5.533 0.0060000001 7.6321802
5.3000002 -5.5440001 0.0049999999 7.6698089
5.382 -5.5539999 0.043000001 7.7339954
5.3790002 -5.533 0.043000001 7.7168374
5.4349999 -5.5560002 0.041999999 7.7723951
5.4889998 -5.5760002 0.041000001 7.8244858
5.4990001 -5.552 0.041000001 7.8144345
5.5640001 -5.5830002 0.039999999 7.8822327
5.652 -5.5999999 0.037999999 7.9565411
5.6820002 -5.612 0.037999999 7.9863081
5.7290001 -5.6240001 0.037 8.0282116
5.7740002 -5.632 0.035999998 8.0659657
5.8740001 -5.6589999 0.034000002 8.1565504
5.9180002 -5.665 0.033 8.1924381
5.96 -5.6700001 0.033 8.2262745
6.0139999 -5.7030001 0.030999999 8.288146
6.1079998 -5.7199998 0.029999999 8.3682117
6.152 -5.7259998 0.028999999 8.4044638
6.2010002 -5.7350001 0.028000001 8.4465036
6.2540002 -5.7480001 0.027000001 8.494278
6.2849998 -5.7579999 0.026000001 8.5238762
6.3829999 -5.7750001 0.025 8.6077833
6.4380002 -5.789 0.024 8.6579981
6.4920001 -5.8010001 0.023 8.7062159
6.546 -5.8119998 0.022 8.7538528
6.6059999 -5.829 0.02 8.8100443
6.6849999 -5.8429999 0.018999999 8.8786392
6.7540002 -5.8660002 0.017999999 8.9457693
6.8099999 -5.8779998 0.016000001 8.9959564
6.8559999 -5.8800001 0.016000001 9.0321312
6.9089999 -5.888 0.015 9.0776119
7.0120001 -5.9190001 0.013 9.1762123
7.073 -5.9330001 0.012 9.2318993
7.1329999 -5.9450002 0.0099999998 9.2856245
7.184 -5.9499998 0.0099999998 9.3280468
7.2519999 -5.9679999 0.0080000004 9.391943
7.3119998 -5.98 0.0070000002 9.44594
7.4299998 -6.0180001 0.0049999999 9.5614452
7.4850001 -6.0240002 0.0040000002 9.6080084
7.5609999 -6.0469999 0.0020000001 9.6816807
7.619 -6.0539999 0.001 9.7313967
7.6880002 -6.0700002 -0 9.7954197
7.8080001 -6.105 -0.003 9.9114027
7.8779998 -6.1199999 -0.0040000002 9.9758358
7.9460001 -6.1329999 -0.0049999999 10.037561
8.0170002 -6.1490002 -0.0070000002 10.103591
8.158 -6.1760001 -0.0089999996 10.232107
8.2220001 -6.204 -0.011 10.30005
8.2980003 -6.2210002 -0.012 10.371008
8.4099998 -6.2249999 0.059 10.463374
8.4829998 -6.2379999 0.057999998 10.529829
8.5640001 -6.256 0.057 10.605795
8.6300001 -6.283 0.056000002 10.675023
8.7019997 -6.2940001 0.055 10.739751
8.7880001 -6.3140001 0.054000001 10.821204
8.9519997 -6.3460002 0.052000001 10.973273
9.026 -6.3559999 0.050999999 11.039475
9.1099997 -6.3930001 0.050000001 11.129468
9.184 -6.402 0.048999999 11.195261
9.2849998 -6.4289999 0.046999998 11.293603
9.4469995 -6.454 0.045000002 11.441238
9.5369997 -6.4710002 0.044 11.525196
9.6459999 -6.5 0.043000001 11.631731
9.7220001 -6.5289998 0.041000001 11.710969
9.9370003 -6.5819998 0.037999999 11.919234
10.029 -6.598 0.037 12.004826
10.134 -6.6209998 0.035999998 12.105242
10.24 -6.645 0.034000002 12.207161
10.34 -6.6630001 0.033 12.300904
10.557 -6.7319999 0.029999999 12.520822
10.653 -6.7459998 0.028999999 12.609352
10.764 -6.7690001 0.027000001 12.715494
10.885 -6.7969999 0.026000001 12.832891
10.988 -6.8130002 0.024 12.928794
11.232 -6.8909998 0.021 13.17741
11.342 -6.9089999 0.018999999 13.280648
11.465 -6.9349999 0.017999999 13.399282
11.591 -6.961 0.016000001 13.520616
11.709 -6.9819999 0.014 13.632652
11.85 -7.0149999 0.013 13.770726
12.092 -7.0809999 0.0089999996 14.012748
12.239 -7.1149998 0.0070000002 14.15685
12.384 -7.1479998 0.0049999999 14.29886
12.521 -7.1739998 0.003 14.430583
12.666 -7.204 0.001 14.571383
12.817 -7.2360001 -0.001 14.718533
13.099 -7.3140001 -0.0049999999 15.002614
13.273 -7.3559999 -0.0070000002 15.175088
13.421 -7.3800001 0.085000001 15.316489
13.56 -7.401 0.083999999 15.448478
13.737 -7.4419999 0.082999997 15.623553
14.572 -7.8070002 0.075999998 16.531733
14.773 -7.8559999 0.074000001 16.732117
14.96 -7.8959999 0.072999999 16.91608
15.133 -7.927 0.071000002 17.08362
15.329 -7.9679999 0.07 17.276348
15.536 -8.0139999 0.068000004 17.481308
15.941 -8.1289997 0.064999998 17.894142
16.160999 -8.177 0.063000001 18.112017
16.379 -8.224 0.061000001 18.327835
16.593 -8.2659998 0.059999999 18.538015
17.040001 -8.3900003 0.056000002 18.993601
17.386 -8.493 0.052999999 19.349596
17.715 -8.585 0.050999999 19.68568
17.962 -8.6359997 0.048999999 19.930286
18.238001 -8.698 0.046999998 20.205992
18.775 -8.8109999 0.041999999 20.739723
19.066 -8.9110003 0.039999999 21.045662
19.281 -8.9379997 0.037999999 21.25197
19.573999 -9 0.035999998 21.543972
21.507999 -9.7290001 0.02 23.606098
21.573 -9.677 0.02 23.644007
21.656 -9.632 0.018999999 23.701437
21.982 -9.7360001 0.016000001 24.041595
26.385 -11.501 0.162 28.783112
35.582001 -15.368 0.146 38.759197
22.007 -9.4180002 0.017000001 23.937567
35.631001 -15.058 0.147 38.682465
24.136 -10.109 -0 26.167507
35.613998 -14.788 0.147 38.562462
35.722 -14.701 0.147 38.629032
35.757 -14.584 0.147 38.617062
35.773998 -14.461 0.147 38.58654
35.816002 -14.347 0.147 38.582951
35.838001 -14.16 0.147 38.534264
32.900002 -12.882 0.152 35.332409
35.902 -13.925 0.147 38.508194
35.937 -13.809 0.147 38.499065
35.938999 -13.68 0.147 38.454853
33.032001 -12.398 0.152 35.282383
35.936001 -13.357 0.147 38.338326
36.048 -13.27 0.147 38.413185
36.055 -13.144 0.147 38.376415
36.095001 -13.03 0.147 38.375145
36.124001 -12.913 0.147 38.362881
36.422001 -12.826 0.147 38.614635
37.487999 -13.068 0.145 39.700676
38.395 -13.249 0.14399999 40.616901
39.82 -13.6 0.141 42.078644
40.700001 -13.757 0.14 42.962364
43.652 -14.524 0.13500001 46.005024
44.536999 -14.663 0.134 46.888866
47.368999 -15.429 0.12899999 49.818596
47.563999 -15.327 0.12899999 49.972668
49.247002 -15.698 0.126 51.688587
51.236 -16.153 0.123 53.722084
56.723 -17.587 0.114 59.386986
56.525002 -17.330999 0.115 59.122353
56.769001 -17.211 0.115 59.320747
58.344002 -17.488001 0.112 60.908661
63.911999 -18.716999 0.103 66.596397
64.871002 -18.886999 0.102 67.564606
66.024002 -18.997999 0.1 68.703003
67.186996 -19.104 0.097999997 69.850304
68.345001 -19.200001 0.096000001 70.990761
70.744003 -19.395 0.093000002 73.354538
71.738998 -19.424999 0.090999998 74.322426
73.225998 -19.704 0.089000002 75.83075
64.612999 -16.955 0.103 66.800621
64.619003 -16.74 0.103 66.752182
64.635002 -16.527 0.103 66.714584
64.668999 -16.32 0.103 66.696571
64.679001 -16.214001 0.103 66.680412
0 0 0 0
0 0 0 0
0 0 0 0
0 0 0 0
0 0 0 0
0 0 0 0
0 0 0 0
0 0 0 0
0 0 0 0
0 0 0 0
0 0 0 0
0 0 0 0
0 0 0 0
0 0 0 0
0 0 0 0
0 0 0 0
0 0 0 0
0 0 0 0
0 0 0 0
0 0 0 0
0 0 0 0
0 0 0 0
0 0 0 0
0 0 0 0
0 0 0 0
0 0 0 0
0 0 0 0
33.568001 -4.9720001 0.154 33.93457
32.497002 -4.71 0.156 32.836922
30.907 -4.382 0.15800001 31.216494
29.867001 -4.1389999 0.16 30.152855
28.587999 -3.78 0.162 28.837273
28.601 -3.7360001 0.162 28.844431
28.618999 -3.6470001 0.162 28.850891
28.638 -3.5580001 0.162 28.858633
28.674 -3.3800001 0.162 28.872978
28.679001 -3.289 0.162 28.867435
28.707001 -3.201 0.162 28.88537
28.718 -3.1570001 0.162 28.89146
28.739 -3.0680001 0.162 28.90275
28.782 -2.8889999 0.162 28.927082
28.791 -2.799 0.162 28.927191
28.816999 -2.71 0.162 28.944599
28.823999 -2.665 0.162 28.94739
28.858 -2.4849999 0.162 28.96525
28.885 -2.3959999 0.162 28.984657
28.895 -2.306 0.162 28.987324
28.944 -2.2179999 0.161 29.029305
28.931 -2.1259999 0.162 29.009462
28.968 -1.9910001 0.161 29.036789
28.98 -1.901 0.161 29.04273
28.996 -1.8099999 0.161 29.052883
36.051998 -2.131 0.15099999 36.115238
36.326 -2.0320001 0.15000001 36.383099
37.112 -1.9 0.149 37.160904
36.674 -1.763 0.15000001 36.716656
36.448002 -1.637 0.15000001 36.485054
35.963001 -1.502 0.15099999 35.994671
36.494999 -1.41 0.15000001 36.522533
36.963001 -1.311 0.149 36.986542
34.967999 -1.077 0.152 34.984909
34.870998 -0.96399999 0.152 34.884651
33.316002 -0.81800002 0.155 33.326401
30.521 -0.65499997 0.15899999 30.52844
30.533001 -0.55900002 0.15899999 30.538532
28.929001 -0.44100001 0.162 28.932816
28.962999 -0.30500001 0.162 28.965059
29.854 -0.219 0.16 29.855232
29.582001 -0.125 0.161 29.582705
31.957001 -0.030999999 -0.046 31.957048
32.005001 0.07 -0.046 32.005108
28.395 0.154 -0.017999999 28.395424
27.694 0.28099999 -0.012 27.695429
27.646999 0.368 -0.012 27.64945
27.684 0.45500001 -0.012 27.687742
26.016001 0.51099998 0.001 26.021019
27.997999 0.63599998 -0.015 28.005226
26.487 0.72799999 -0.003 26.497002
33.389 1.017 0.155 33.404846
26.218 0.88599998 -0.001 26.232965
25.42 0.94 0.0049999999 25.437374
24.541 1.062 0.012 24.563971
23.681999 1.063 0.018999999 23.705853
24.365 1.17 0.014 24.393078
23.663 1.212 0.018999999 23.694025
23.860001 1.2970001 0.017999999 23.895231
23.5 1.426 0.02 23.543234
23.511999 1.5 0.02 23.559807
23.417999 1.531 0.021 23.468
23.319 1.599 0.022 23.37377
23.368 1.676 0.021 23.428034
23.379999 1.824 0.021 23.451052
23.275 1.89 0.022 23.35162
23.224001 1.9220001 0.022 23.303408
23.098 1.985 0.023 23.183149
24.506001 2.26 0.012 24.609993
25.018 2.3859999 0.0080000004 25.131521
24.941 2.4579999 0.0080000004 25.061829
24.364 2.4790001 0.013 24.489796
24.327999 2.5910001 0.013 24.465588
24.274 2.6619999 0.013 24.419533
24.297001 2.7420001 0.013 24.451237
24.556999 2.849 0.011 24.721714
24.341 2.902 0.013 24.513386
24.356001 2.9809999 0.013 24.537752
24.433001 3.108 0.012 24.629887
24.544001 3.2 0.011 24.751728
25.055 3.346 0.0070000002 25.277437
25.671 3.51 0.0020000001 25.909851
24.798 3.471 0.0089999996 25.039743
29.225 4.2259998 -0.027000001 29.528976
29.222 4.3200002 -0.027000001 29.539608
26.622999 4.0229998 -0.0060000001 26.925241
26.5 4.0900002 -0.0049999999 26.813766
26.471001 4.171 -0.0049999999 26.797594
22.896999 3.6849999 0.023 23.191645
25.989 4.3049998 -0.0020000001 26.343143
25.934 4.3790002 -0.001 26.301102
23.969 4.1269999 0.014 24.321703
24.033001 4.2160001 0.014 24.4
24.549 4.3850002 0.0089999996 24.937555
44.535 8.1709995 0.13600001 45.27858
27.408001 5.1149998 -0.014 27.88121
27.457001 5.2140002 -0.014 27.947681
0 0 0 0
44.68 8.7790003 0.13600001 45.534512
0 0 0 0
44.778 9.1639996 0.13600001 45.70631
0 0 0 0
0 0 0 0
18.768999 4.033 0.055 19.197485
0 0 0 0
0 0 0 0
0 0 0 0
0 0 0 0
13.085 3.0910001 0.017000001 13.44514
12.982 3.1099999 0.017999999 13.349336
13.009 3.1600001 0.017999999 13.387307
12.988 3.1760001 0.017999999 13.370693
21.27 5.27 0.033 21.913168
0 0 0 0
0 0 0 0
0 0 0 0
45.425999 11.932 0.134 46.967136
17.273001 4.6030002 0.064999998 17.875917
17.200001 4.6420002 0.066 17.815514
17.003 4.7030001 0.067000002 17.641562
17.023001 4.7659998 0.067000002 17.677721
16.916 4.7940001 0.067000002 17.582319
16.948 4.8319998 0.067000002 17.623491
16.802 4.9050002 0.068000004 17.503454
16.871 4.9819999 0.067000002 17.591345
16.804001 5.02 0.068000004 17.537945
16.777 5.0689998 0.068000004 17.526184
16.813 5.1090002 0.067000002 17.572233
16.075001 4.9970002 0.072999999 16.833923
16.756001 5.2649999 0.068000004 17.563837
16.829 5.3460002 0.067000002 17.657845
15.755 5.0609999 0.075999998 16.548098
16.872999 5.4770002 0.066 17.739786
16.84 5.5539999 0.066 17.732368
29.768 9.8999996 -0.041000001 31.371094
30.809999 10.353 0.156 32.503307
30.827999 10.467 0.156 32.556839
30.926001 10.608 0.156 32.695129
31 10.798 0.156 32.827141
31.066 10.93 0.155 32.933044
31.056 11.036 0.155 32.95895
34.488998 12.382 0.15000001 36.644608
34.382999 12.466 0.15000001 36.57341
30.066 11.004 0.15700001 32.016823
30.231001 11.227 0.15700001 32.248775
34.036999 12.765 0.15000001 36.352234
34.140999 12.927 0.15000001 36.50668
34.046001 13.013 0.15000001 36.448467
33.755001 13.146 0.15000001 36.22485
33.645 13.164 0.15000001 36.128929
33.691002 13.304 0.15000001 36.222958
33.612 13.395 0.15000001 36.183075
33.616001 13.519 0.15000001 36.232876
33.714001 13.805 0.15000001 36.431225
33.782001 13.895 0.15000001 36.528305
33.644001 13.962 0.15000001 36.426346
34.188999 14.315 0.149 37.065201
33.993 14.484 0.149 36.950405
33.951 14.593 0.149 36.954678
33.631001 14.517 0.15000001 36.630722
33.580002 14.621 0.15000001 36.625301
33.426998 14.679 0.15000001 36.50835
33.539001 14.981 0.15000001 36.733055
33.705002 15.182 0.149 36.966774
33.623001 15.272 0.149 36.929153
33.154999 15.122 0.15000001 36.441067
33.046001 15.324 0.15000001 36.426441
32.935001 15.398 0.15000001 36.357052
33.345001 15.719 0.149 36.864594
33.372002 15.859 0.149 36.948895
33.294998 15.951 0.149 36.919014
33.092999 16.047001 0.149 36.778732
33.025002 16.142 0.15000001 36.759182
33.688999 16.599001 0.148 37.556587
15.698 7.8070002 0.068000004 17.532288
15.626 7.8330002 0.068000004 17.479485
15.537 7.8499999 0.068999998 17.407631
15.399 7.8709998 0.07 17.294125
15.328 7.8959999 0.07 17.242371
15.248 7.915 0.071000002 17.18004
15.169 7.9349999 0.071000002 17.119223
15.097 7.9580002 0.071000002 17.066172
14.96 7.9770002 0.071999997 16.954037
14.88 7.994 0.072999999 16.891529
14.809 8.0159998 0.072999999 16.839479
14.738 8.0380001 0.074000001 16.787601
14.662 8.0559998 0.074000001 16.72958
14.597 8.0799999 0.074000001 16.684252
14.459 8.0930004 0.075000003 16.570002
14.383 8.1099997 0.075999998 16.512074
14.317 8.1330004 0.075999998 16.465963
14.246 8.1520004 0.077 16.4137
14.177 8.1719999 0.077 16.363827
14.107 8.1899996 0.077 16.31225
13.98 8.2049999 0.078000002 16.210135
13.916 8.2270002 0.079000004 16.166164
13.849 8.2460003 0.079000004 16.118237
13.775 8.2609997 0.079000004 16.062408
13.706 8.2779999 0.079999998 16.012062
13.581 8.2910004 0.081 15.911971
13.524 8.3140001 0.081 15.875381
13.459 8.3330002 0.081 15.830038
13.39 8.349 0.082000002 15.779881
13.328 8.368 0.082000002 15.737399
13.26 8.3839998 0.082000002 15.688396
13.144 8.3979998 0.082999997 15.598013
13.084 8.4169998 0.082999997 15.557757
13.021 8.434 0.083999999 15.514053
12.956 8.4499998 0.083999999 15.468273
12.832 8.4849997 0.085000001 15.383843
12.779 8.4790001 0.085000001 15.336346
12.715 8.4949999 0.085000001 15.291942
12.652 8.5100002 0.086000003 15.247972
12.589 8.5249996 0.086000003 15.204143
10.744 7.3670001 0.023 13.027155
10.704 7.3649998 0.023 12.993052
10.65 7.3769999 0.024 12.955431
10.556 7.4099998 0.025 12.897203
10.492 7.414 0.025 12.847181
10.441 7.427 0.026000001 12.813098
10.39 7.4400001 0.026000001 12.779139
10.309 7.4559999 0.027000001 12.722741
10.26 7.4699998 0.028000001 12.691307
10.204 7.4780002 0.028000001 12.650806
10.166 7.4990001 0.028000001 12.63263
10.107 7.5050001 0.028999999 12.588778
10.057 7.5159998 0.029999999 12.555254
9.9729996 7.527 0.029999999 12.494693
9.9289999 7.5430002 0.030999999 12.469276
9.8879995 7.5609999 0.030999999 12.447578
9.8290005 7.5650001 0.032000002 12.403205
9.7779999 7.5749998 0.032000002 12.36895
9.7340002 7.5890002 0.033 12.342802
9.6450005 7.5929999 0.034000002 12.275212
9.6099997 7.6149998 0.034000002 12.261381
9.5500002 7.6160002 0.034000002 12.215036
9.5080004 7.631 0.035 12.191614
9.4729996 7.652 0.035 12.177523
9.3760004 7.6469998 0.035999998 12.099061
9.3430004 7.6690001 0.035999998 12.087453
9.2910004 7.6750002 0.037 12.051128
9.2419996 7.684 0.037 12.019143
9.2030001 7.6999998 0.037 11.999441
9.125 7.7080002 0.037999999 11.944888
9.0900002 7.7280002 0.037999999 11.931117
9.04 7.7340002 0.039000001 11.896969
8.9899998 7.7399998 0.039000001 11.862935
8.9549999 7.7589998 0.039000001 11.848866
8.8769999 7.7639999 0.039999999 11.793321
8.8360004 7.7779999 0.041000001 11.77174
8.7799997 7.777 0.041000001 11.729101
8.7519999 7.802 0.041000001 11.724776
8.665 7.822 0.041999999 11.673374
8.6219997 7.8330002 0.041999999 11.648886
8.5860004 7.8249998 0.043000001 11.616879
8.5380001 7.8299999 0.043000001 11.584826
8.5080004 7.8520002 0.043000001 11.577643
8.4189997 7.868 0.044 11.52332
8.3789997 7.881 0.044 11.503032
8.3360004 7.8889999 0.045000002 11.477249
8.3030005 7.8829999 0.045000002 11.449172
8.2229996 7.9060001 0.046 11.407221
8.1850004 7.9190001 0.046 11.388895
8.1479998 7.9320002 0.046 11.371396
8.1079998 7.9439998 0.046 11.351164
8.0769997 7.9380002 0.046999998 11.32484
7.9990001 7.96 0.046999998 11.284848
7.96 7.9710002 0.048 11.265023
7.9250002 7.9860001 0.048 11.250961
7.8790002 7.9899998 0.048 11.221455
7.8410001 8.0019999 0.048999999 11.203379
7.7729998 8.007 0.048999999 11.159479
7.7379999 8.0209999 0.048999999 11.145201
7.6929998 8.0249996 0.050000001 11.116896
7.6599998 8.0410004 0.050000001 11.105664
7.6149998 8.0439997 0.050000001 11.076852
7.5780001 8.0550003 0.050999999 11.059463
7.5229998 8.073 0.050999999 11.03501
7.4749999 8.0719995 0.050999999 11.001609
7.4359999 8.0799999 0.052000001 10.981038
7.4000001 8.092 0.052000001 10.965545
7.3610001 8.1000004 0.052000001 10.945183
7.3239999 8.1099997 0.052000001 10.927752
7.2610002 8.1169996 0.052999999 10.89085
7.2270002 8.1300001 0.052999999 10.877924
7.1919999 8.1420002 0.052999999 10.863693
7.1490002 8.1450005 0.054000001 10.837534
7.1129999 8.1549997 0.054000001 10.821354
7.0560002 8.1669998 0.054000001 10.793051
7.0190001 8.1759996 0.055 10.775729
6.9840002 8.1870003 0.055 10.761332
6.9720001 8.2259998 0.054000001 10.783264
6.9949999 8.3590002 0.052999999 10.899803
7.0209999 8.4169998 0.052000001 10.960978
7.0739999 8.5349998 0.050000001 11.085586
7.303 8.8699999 0.045000002 11.489679
6.822 8.3360004 0.055 10.771797
6.757 8.3629999 0.055 10.751737
7.3889999 9.2089996 0.039999999 11.806972
7.4109998 9.2659998 0.039000001 11.86521
6.6490002 8.3620005 0.056000002 10.683416
6.5910001 8.3979998 0.056000002 10.675712
0 0 0 0
7.5089998 9.698 0.034000002 12.265294
7.4819999 9.6960001 0.034000002 12.2472
7.4369998 9.6999998 0.034000002 12.222934
7.3979998 9.7119999 0.034000002 12.208788
7.3010001 9.71 0.035 12.14866
7.2810001 9.7480001 0.035 12.167074
7.2350001 9.75 0.035 12.141209
7.2129998 9.7510004 0.035999998 12.128919
7.132 9.7690001 0.035999998 12.095458
7.0960002 9.7849998 0.035999998 12.087214
7.0560002 9.7939997 0.035999998 12.071075
7.0180001 9.8059998 0.037 12.058662
6.974 9.809 0.037 12.035553
6.9710002 9.9040003 0.035999998 12.111373
6.8730001 9.8299999 0.037 11.994515
6.8400002 9.849 0.037 11.991238
6.796 9.8500004 0.037999999 11.96702
6.756 9.8579998 0.037999999 11.950948
6.7199998 9.8730001 0.037999999 11.943031
6.6560001 9.8780003 0.039000001 11.911286
6.6230001 9.8959999 0.039000001 11.907833
6.585 9.9060001 0.039000001 11.895065
6.5450001 9.9139996 0.039000001 11.879643
6.507 9.9239998 0.039000001 11.867111
6.473 9.9390001 0.039000001 11.86107
6.4130001 9.9499998 0.039999999 11.83768
6.3730001 9.9560003 0.039999999 11.821112
6.3319998 9.9610004 0.039999999 11.803277
6.296 9.974 0.039999999 11.794994
6.2600002 9.9849997 0.039999999 11.785135
6.197 9.9890003 0.041000001 11.755196
6.165 10.009 0.041000001 11.755381
6.1209998 10.007 0.041000001 11.730659
6.086 10.02 0.041000001 11.723544
6.0560002 10.042 0.041000001 11.726831
5.9889998 10.036 0.041999999 11.687223
5.9520001 10.046 0.041999999 11.676908
5.9169998 10.06 0.041999999 11.671172
5.8769999 10.063 0.041999999 11.653534
5.8049998 10.086 0.041999999 11.63732
5.77 10.097 0.043000001 11.629452
5.7490001 10.097 0.043000001 11.619047
5.7150002 10.112 0.043000001 11.615319
5.6750002 10.114 0.043000001 11.597434
5.5999999 10.13 0.043000001 11.574919
5.5679998 10.146 0.043000001 11.573495
5.5279999 10.149 0.044 11.556943
5.507 10.149 0.044 11.546912
5.4349999 10.168 0.044 11.529501
5.4029999 10.185 0.044 11.529466
5.3049998 10.076 0.046 11.387315
5.2680001 10.082 0.046 11.375442
5.256 10.097 0.046 11.383192
5.2379999 10.219 0.045000002 11.483319
5.2020001 10.228 0.045000002 11.474965
5.1609998 10.227 0.045000002 11.455544
5.125 10.236 0.045000002 11.447416
5.0900002 10.246 0.045000002 11.440745
5.0349998 10.256 0.045000002 11.425357
5 10.266 0.046 11.41897
4.9679999 10.282 0.046 11.419398
4.9289999 10.285 0.046 11.405191
4.8979998 10.302 0.046 11.407179
4.8590002 10.303 0.046 11.391393
4.803 10.311 0.046 11.374869
4.7719998 10.328 0.046 11.377245
4.7360001 10.336 0.046 11.369465
4.6989999 10.34 0.046 11.357743
4.678 10.38 0.046 11.385526
4.7189999 10.561 0.043000001 11.567434
4.8109999 10.907 0.037999999 11.920981
4.8569999 11.107 0.035999998 12.12259
4.8889999 11.277 0.033 12.291223
4.9369998 11.487 0.029999999 12.503041
4.9910002 11.716 0.027000001 12.734813
5.0809999 12.087 0.022 13.111545
5.5370002 13.296 0.0040000002 14.402846
5.48 13.276 0.0040000002 14.362541
5.4359999 13.288 0.0040000002 14.356917
5.395 13.305 0.0040000002 14.357196
5.3660002 13.355 0.0040000002 14.392706
5.552 14.011 -0.0060000001 15.070927
5.6069999 14.289 0.085000001 15.349957
5.652 14.538 0.082999997 15.598251
6.0539999 15.712 0.072999999 16.838146
6.0029998 15.725 0.072999999 16.832022
6.0079999 15.963 0.071999997 17.056337
5.941 15.938 0.071999997 17.009424
4.7670002 12.903 0.013 13.75543
4.7179999 12.895 0.013 13.731013
4.6469998 12.953 0.013 13.761358
4.612 12.984 0.012 13.778786
4.572 12.935 0.013 13.719241
3.822 11.023 0.041999999 11.666876
3.776 11.001 0.043000001 11.631081
3.7360001 10.996 0.043000001 11.613421
3.6919999 10.979 0.043000001 11.583227
3.6949999 11.046 0.041999999 11.647699
3.9890001 12.187 0.026000001 12.823252
3.9130001 12.083 0.028000001 12.700836
3.865 12.063 0.028000001 12.667082
3.822 12.06 0.028000001 12.651169
3.7780001 12.051 0.028999999 12.629359
3.4749999 11.265 0.039999999 11.78887
3.645 11.954 0.029999999 12.497402
3.3599999 11.139 0.041999999 11.634805
3.622 12.155 0.028000001 12.683205
3.5209999 11.949 0.030999999 12.457006
3.4679999 11.906 0.032000002 12.400842
3.4330001 11.929 0.032000002 12.4132
3.4360001 12.155 0.028999999 12.631348
3.4130001 12.219 0.028000001 12.686737
3.2030001 11.603 0.037 12.037034
3.339 12.25 0.028000001 12.696937
2.9349999 10.895 0.046999998 11.283504
3.0599999 11.58 0.037999999 11.97754
3.03 11.614 0.037 12.002803
3.1459999 12.223 0.028999999 12.621405
3.0569999 12.033 0.032000002 12.415287
3.0039999 11.978 0.032000002 12.348989
2.971 12.009 0.032000002 12.371093
2.954 12.188 0.029999999 12.540907
2.9360001 12.281 0.028999999 12.62711
2.9289999 12.426 0.027000001 12.766567
2.931 12.613 0.024 12.949097
2.8770001 12.652 0.024 12.975008
2.8770001 12.839 0.021 13.157413
2.934 13.291 0.015 13.610998
2.918 13.423 0.013 13.736515
2.842 13.274 0.015 13.57484
2.4530001 11.805 0.037 12.057222
2.4519999 11.895 0.035 12.145145
2.46 12.124 0.032000002 12.371095
2.352 11.779 0.037 12.011582
2.2079999 11.43 0.041999999 11.641389
2.187 11.515 0.041000001 11.720917
2.2019999 11.799 0.037 12.002773
2.145 11.594 0.039999999 11.790821
2.033 11.383 0.043000001 11.563201
2.0810001 11.874 0.037 12.055033
2.0150001 11.713 0.039000001 11.885122
1.937 11.469 0.043000001 11.631499
1.899 11.467 0.043000001 11.623259
1.883 11.711 0.039000001 11.861482
1.8 11.42 0.044 11.56107
1.778 11.519 0.041999999 11.655489
1.712 11.324 0.045000002 11.45277
1.761 11.91 0.037 12.039543
1.664 11.495 0.043000001 11.614894
1.5599999 11.147 0.048 11.255733
1.501 10.967 0.050000001 11.069353
1.478 11.061 0.048999999 11.159418
1.433 10.986 0.050000001 11.079178
1.382 10.856 0.052000001 10.943736
1.35 10.878 0.052000001 10.961574
1.296 10.864 0.052000001 10.941153
1.256 10.815 0.052999999 10.887817
1.222 10.818 0.052999999 10.886929
1.1849999 10.798 0.052999999 10.862958
1.154 10.828 0.052999999 10.889449
1.101 10.817 0.052999999 10.873017
1.068 10.827 0.052999999 10.879676
1.034 10.826 0.052999999 10.875396
0.99699998 10.797 0.054000001 10.843068
0.96100003 10.782 0.054000001 10.824877
0.91100001 10.793 0.054000001 10.831513
0.87699997 10.794 0.054000001 10.829703
0.84299999 10.794 0.054000001 10.827003
0.81300002 10.859 0.052999999 10.889521
0.74400002 10.852 0.052999999 10.877604
0.71200001 10.88 0.052999999 10.903401
0.69199997 10.837 0.052999999 10.8592
0.66000003 10.867 0.052999999 10.887153
0.62800002 10.905 0.052000001 10.923191
0.55900002 10.915 0.052000001 10.929428
0.52499998 10.919 0.052000001 10.931738
0.49000001 10.912 0.052000001 10.92312
0.47400001 10.933 0.052000001 10.943394
0.40700001 10.98 0.052000001 10.987663
0.37400001 11.027 0.050999999 11.033459
0.34099999 11.076 0.050000001 11.081361
0.30500001 11.063 0.050000001 11.067316
0.27200001 11.11 0.050000001 11.113441
0.221 11.189 0.048999999 11.19129
0.186 11.188 0.048999999 11.189653
0.152 11.292 0.046999998 11.29312
0.116 11.307 0.046999998 11.307693
0.081 11.409 0.046 11.409381
0.045000002 11.415 0.046 11.415182
-0.0089999996 11.623 0.043000001 11.623083
-0.046999998 11.851 0.039000001 11.851157
-0.28200001 40.147999 0.14399999 40.149246
-0.40799999 40.16 0.14399999 40.162331
-0.59799999 40.209999 0.14399999 40.214703
-0.207 11.455 0.045000002 11.456959
-0.23899999 11.315 0.046999998 11.317621
0 0 0 0
-1.1059999 40.292999 0.14399999 40.308434
-1.234 40.34 0.14399999 40.359127
-1.426 40.393002 0.14399999 40.418423
-1.552 40.362999 0.14399999 40.393082
-1.677 40.307999 0.14399999 40.343128
-1.811 40.464001 0.14399999 40.504761
-1.9400001 40.495998 0.14399999 40.542698
-2.0699999 40.542 0.14399999 40.595066
-2.263 40.578999 0.14300001 40.642303
-2.7909999 47.298 0.133 47.380463
-2.9349999 47.201 0.133 47.292347
-3.0940001 47.360001 0.133 47.461143
-3.247 47.410999 0.133 47.52224
-3.4779999 47.499001 0.133 47.626347
-3.6300001 47.52 0.133 47.65863
-3.7820001 47.551998 0.133 47.702343
-0.37200001 4.4359999 0.0060000001 4.4515743
-0.38600001 4.4330001 0.0060000001 4.4497776
0 0 0 0
0 0 0 0
0 0 0 0
-3.895 38.944 0.146 39.138569
-4.1370001 38.893002 0.146 39.112679
-4.1669998 38.049 0.147 38.276779
-4.1620002 37.466 0.148 37.696754
-4.2449999 37.146999 0.149 37.389061
-4.3990002 36.467999 0.15000001 36.732662
-4.487 36.240002 0.15000001 36.517029
-4.599 36.209999 0.15000001 36.501194
-4.6989999 36.091999 0.15000001 36.396915
-4.776 36.235001 0.15000001 36.548706
-4.8049998 34.773998 0.152 35.104729
-4.875 34.487999 0.153 34.831181
-4.967 34.356998 0.153 34.71452
-5.0440001 34.136002 0.153 34.506985
-5.1090002 33.839001 0.153 34.222847
-5.2179999 33.492001 0.154 33.896393
-5.3270001 33.504002 0.154 33.925194
-5.4200001 33.411999 0.154 33.849102
-5.5240002 33.387001 0.154 33.841248
-5.4520001 32.021999 0.156 32.483181
-5.5370002 31.912001 0.156 32.389172
-5.5879998 31.620001 0.15700001 32.110355
-5.6350002 31.309999 0.15700001 31.813423
-5.6849999 31.028 0.15800001 31.544903
-5.7459998 30.815001 0.15800001 31.346542
