# .PCD v0.7 - Point Cloud Data file format
VERSION 0.7
FIELDS x y z intensity
SIZE 4 4 4 4
TYPE F F F F
COUNT 1 1 1 1
WIDTH 1364
HEIGHT 1
VIEWPOINT 0 0 0 1 0 0 0
POINTS 1364
DATA ascii
0.29100001 -4.9679999 0.045000002 4.9767189
0.30599999 -4.9549999 0.045000002 4.9646435
0.322 -4.96 0.045000002 4.970645
0.35299999 -4.9650002 0.045000002 4.9777365
0.361 -4.967 0.045000002 4.9803047
0.377 -4.9720001 0.045000002 4.9864759
0.39199999 -4.961 0.045000002 4.9766665
0.42500001 -4.9759998 0.045000002 4.9943194
0.44 -4.9689999 0.045000002 4.9886456
0.456 -4.9770002 0.044 4.9980397
0.46399999 -4.9759998 0.044 4.9977803
0.47999999 -4.9809999 0.044 5.0042677
0.51200002 -4.9780002 0.044 5.0044546
0.528 -4.9860001 0.044 5.0140719
0.54400003 -4.9879999 0.044 5.0177698
0.55299997 -4.993 0.044 5.0237231
0.58499998 -4.9959998 0.043000001 5.0303168
0.60000002 -4.9920001 0.043000001 5.0281124
0.61699998 -4.9959998 0.043000001 5.0341387
0.63300002 -5 0.043000001 5.0400929
0.64899999 -4.9980001 0.043000001 5.0401444
0.67400002 -5.0089998 0.043000001 5.0543251
0.69099998 -5.013 0.041999999 5.0605745
0.70700002 -5.0100002 0.041999999 5.059814
0.72299999 -5.0139999 0.041999999 5.0660329
0.74000001 -5.0180001 0.041999999 5.072444
0.75599998 -5.0190001 0.041999999 5.0757918
0.78299999 -5.0359998 0.041000001 5.0966716
0.796 -5.0149999 0.041999999 5.0779524
0.81300002 -5.0229998 0.041999999 5.088542
0.83099997 -5.0359998 0.041000001 5.1042662
0.847 -5.0349998 0.041000001 5.1059093
0.85799998 -4.9520001 0.044 5.0259728
0.87 -4.928 0.044 5.0044003
0.88499999 -4.9250002 0.044 5.004077
0.90200001 -4.9299998 0.044 5.0120296
0.921 -4.9450002 0.043000001 5.03022
0.935 -4.9359999 0.044 5.0239682
0.96100003 -4.947 0.043000001 5.0396605
0.96600002 -4.8860002 0.045000002 4.9807811
0.98400003 -4.9000001 0.044 4.9980187
1 -4.8969998 0.044 4.9982543
1.016 -4.9000001 0.044 5.0044174
1.04 -4.8990002 0.044 5.0083671
1.056 -4.895 0.044 5.0078034
1.076 -4.914 0.043000001 5.0306082
1.0880001 -4.8969998 0.044 5.0166011
1.107 -4.9089999 0.043000001 5.0324526
1.1289999 -4.9000001 0.043000001 5.0285673
1.148 -4.9099998 0.043000001 5.0426035
1.1670001 -4.9239998 0.041999999 5.0605755
1.182 -4.9180002 0.041999999 5.0582223
1.198 -4.914 0.041999999 5.0580988
1.233 -4.9260001 0.041999999 5.0781422
1.242 -4.928 0.041999999 5.0822744
1.2589999 -4.9320002 0.041000001 5.090323
1.273 -4.9219999 0.041999999 5.0841298
1.3099999 -4.9349999 0.041000001 5.1060753
1.326 -4.9349999 0.041000001 5.1102037
1.337 -4.9419999 0.041000001 5.1198254
1.3559999 -4.9520001 0.039999999 5.1344562
1.3839999 -4.9330001 0.039999999 5.1236262
1.406 -4.9520001 0.039999999 5.1478868
1.42 -4.9419999 0.039999999 5.1421165
1.4400001 -4.9530001 0.039000001 5.1582294
1.448 -4.9510002 0.039000001 5.1585488
1.483 -4.9549999 0.039000001 5.1723142
1.502 -4.9619999 0.037999999 5.1844854
1.517 -4.9569998 0.037999999 5.1840696
1.535 -4.9580002 0.037999999 5.1903214
1.5599999 -4.9840002 0.037 5.222569
1.584 -5.0149999 0.068000004 5.2596483
1.5930001 -4.9889998 0.068000004 5.2375941
1.624 -5.006 0.068000004 5.2632723
1.6440001 -5.0120001 0.067000002 5.2751656
1.659 -5.0050001 0.067000002 5.2732153
1.681 -5.0190001 0.067000002 5.2934499
1.721 -5.033 0.066 5.3195195
1.73 -5.006 0.067000002 5.296926
1.743 -5.0209999 0.066 5.3153405
1.76 -5.0170002 0.066 5.3171654
1.784 -5.0359998 0.064999998 5.343049
1.821 -5.0380001 0.064999998 5.357398
1.835 -5.026 0.064999998 5.3508997
1.847 -5.0370002 0.064999998 5.3653522
1.86 -5.0209999 0.064999998 5.3548355
1.888 -5.0489998 0.064000003 5.3908291
1.924 -5.0479999 0.064000003 5.4026079
1.936 -5.0310001 0.064000003 5.3910255
1.961 -5.0489998 0.064000003 5.4168272
1.964 -5.033 0.064000003 5.4030066
1.994 -5.0619998 0.063000001 5.4409418
2.027 -5.053 0.063000001 5.4447689
2.056 -5.0799999 0.061999999 5.4806366
2.059 -5.04 0.063000001 5.4447269
2.0799999 -5.0700002 0.061999999 5.480433
2.1140001 -5.0630002 0.061999999 5.4869671
2.1340001 -5.0640001 0.061000001 5.4956141
2.158 -5.0770001 0.061000001 5.5169387
2.1800001 -5.0830002 0.061000001 5.531095
2.1889999 -5.0619998 0.061000001 5.515368
2.224 -5.0749998 0.059999999 5.541245
2.247 -5.0840001 0.059999999 5.5587468
2.2720001 -5.0970001 0.059 5.5807595
2.28 -5.072 0.059999999 5.5612216
2.3069999 -5.0900002 0.059 5.5887237
2.329 -5.0960002 0.059 5.6032972
2.372 -5.1240001 0.057999998 5.6466913
2.3770001 -5.0949998 0.057999998 5.6225009
2.3959999 -5.0929999 0.057999998 5.6287503
2.418 -5.098 0.057999998 5.6426673
2.4519999 -5.1269999 0.057 5.6834569
2.4760001 -5.1149998 0.057 5.6830492
2.497 -5.118 0.056000002 5.6949158
2.5179999 -5.119 0.056000002 5.7050519
2.5309999 -5.1059999 0.056000002 5.699152
2.5699999 -5.1420002 0.055 5.7487469
2.5710001 -5.1059999 0.056000002 5.7170286
2.619 -5.1399999 0.054000001 5.7690272
2.638 -5.1370001 0.054000001 5.7750087
2.654 -5.1290002 0.054000001 5.775229
2.687 -5.152 0.052999999 5.8108416
2.6949999 -5.1279998 0.054000001 5.7932997
2.73 -5.1539998 0.052999999 5.8326168
2.7579999 -5.1490002 0.052000001 5.8413587
2.779 -5.1490002 0.052000001 5.8513036
2.8169999 -5.1799998 0.050999999 5.8966508
2.823 -5.152 0.052000001 5.8749585
2.8610001 -5.165 0.050999999 5.9046721
2.8889999 -5.177 0.050000001 5.9287562
2.9030001 -5.1620002 0.050000001 5.9225125
2.947 -5.2020001 0.048999999 5.9789643
2.9430001 -5.158 0.050000001 5.9387465
2.9990001 -5.1789999 0.048999999 5.9848509
3.0190001 -5.1950002 0.048 6.008718
3.0280001 -5.1729999 0.048 5.9942484
3.069 -5.2049999 0.046999998 6.0425982
3.075 -5.178 0.048 6.0224261
3.1270001 -5.2010002 0.078000002 6.0691528
3.1340001 -5.1760001 0.078000002 6.0513649
3.1719999 -5.1830001 0.078000002 6.0771008
3.2149999 -5.2179999 0.077 6.1294107
3.2190001 -5.1869998 0.077 6.1051502
3.266 -5.2259998 0.075999998 6.163084
3.2639999 -5.1869998 0.077 6.1289959
3.302 -5.1939998 0.075999998 6.15521
3.3570001 -5.244 0.075000003 6.2269263
3.352 -5.1999998 0.075000003 6.1872067
3.402 -5.2410002 0.074000001 6.2487731
3.4030001 -5.2069998 0.075000003 6.2208428
3.444 -5.2329998 0.074000001 6.2650537
3.484 -5.2399998 0.072999999 6.2929473
3.4820001 -5.2030001 0.074000001 6.2610712
3.5339999 -5.2449999 0.071999997 6.3249002
3.546 -5.2270002 0.072999999 6.3167219
3.5699999 -5.2280002 0.071999997 6.3310404
3.618 -5.263 0.071000002 6.3870282
3.6489999 -5.2540002 0.071000002 6.3972464
3.658 -5.2319999 0.071000002 6.3843422
3.698 -5.2540002 0.07 6.4253116
3.7149999 -5.244 0.07 6.4269481
3.7449999 -5.25 0.07 6.4492192
3.78 -5.2470002 0.07 6.4671721
3.839 -5.2950001 0.068000004 6.5406094
3.829 -5.2459998 0.068999998 6.4951148
3.8740001 -5.2719998 0.068000004 6.542666
3.9189999 -5.2639999 0.068000004 6.562993
3.9289999 -5.2610002 0.067000002 6.566556
3.9790001 -5.2940001 0.066 6.6229324
3.9809999 -5.2620001 0.067000002 6.598598
4.0469999 -5.2800002 0.066 6.6528916
4.0700002 -5.2750001 0.064999998 6.6629386
4.105 -5.303 0.064000003 6.7064843
4.1100001 -5.276 0.064999998 6.6882362
4.1620002 -5.2740002 0.064000003 6.7187362
4.2179999 -5.3109999 0.063000001 6.7824931
4.2309999 -5.2930002 0.063000001 6.7765169
4.27 -5.3080001 0.061999999 6.8126068
4.2740002 -5.2950001 0.061999999 6.8049941
4.3410001 -5.3099999 0.061000001 6.8588705
4.3790002 -5.323 0.061000001 6.8930178
4.388 -5.3000002 0.061000001 6.8810072
4.4499998 -5.3410001 0.059 6.9521408
4.4660001 -5.3260002 0.059 6.9508929
4.5139999 -5.3319998 0.059 6.9864082
4.5669999 -5.3610001 0.057 7.0428019
4.5749998 -5.336 0.057999998 7.0290031
4.6160002 -5.3499999 0.057 7.0663433
4.6430001 -5.348 0.057 7.0825
4.6950002 -5.3559999 0.056000002 7.1227026
4.7540002 -5.3889999 0.054000001 7.1864285
4.7639999 -5.3670001 0.055 7.1765876
4.802 -5.3759999 0.054000001 7.208571
4.8270001 -5.3699999 0.054000001 7.2207856
4.8670001 -5.3800001 0.052999999 7.2549915
0 0 0 0
4.9460001 -5.3829999 0.052000001 7.3104248
4.9889998 -5.395 0.050999999 7.3483839
5.0139999 -5.388 0.050999999 7.3602543
5.0619998 -5.4060001 0.050000001 7.406158
5.1360002 -5.4330001 0.048 7.4765162
5.1399999 -5.4039998 0.048999999 7.4582314
5.204 -5.4369998 0.046999998 7.5262733
5.217 -5.4159999 0.046999998 7.5201297
5.2639999 -5.4320002 0.046 7.5642872
5.3150001 -5.4330001 0.046 7.6005812
0 0 0 0
5.3860002 -5.4239998 0.097999997 7.6444998
5.408 -5.4130001 0.097999997 7.6522312
5.4780002 -5.4299998 0.097000003 7.7138057
5.5170002 -5.434 0.097000003 7.7443566
5.5539999 -5.4359999 0.097000003 7.7721567
5.5939999 -5.441 0.096000001 7.8042636
5.6300001 -5.4419999 0.096000001 7.8308034
5.665 -5.4419999 0.094999999 7.8559923
5.7360001 -5.4580002 0.094999999 7.9183636
5.7779999 -5.4629998 0.093999997 7.9522629
5.8200002 -5.4679999 0.093999997 7.9862542
5.862 -5.473 0.093000002 8.0203133
5.895 -5.4689999 0.093000002 8.0417433
5.9450002 -5.48 0.092 8.085907
6.0149999 -5.493 0.090999998 8.1462603
6.0609999 -5.4990001 0.090999998 8.1843138
6.1030002 -5.5029998 0.090000004 8.2181339
6.138 -5.4990001 0.090000004 8.2414894
6.1799998 -5.5009999 0.090000004 8.274147
6.2579999 -5.5180001 0.089000002 8.3437881
6.316 -5.5339999 0.088 8.3979015
6.355 -5.5320001 0.086999997 8.4259491
6.4050002 -5.5409999 0.086999997 8.4696093
6.4520001 -5.546 0.086000003 8.5084553
6.5250001 -5.5549998 0.085000001 8.5697651
6.573 -5.5599999 0.085000001 8.6095963
6.6199999 -5.5640001 0.083999999 8.6480951
6.6719999 -5.573 0.083999999 8.6937313
6.7189999 -5.5760002 0.082999997 8.73176
6.8249998 -5.592 0.082000002 8.8237076
6.882 -5.6199999 0.081 8.8855438
6.9120002 -5.6079998 0.081 8.9012337
6.9770002 -5.6240001 0.079999998 8.9618254
7.013 -5.6170001 0.079999998 8.9855032
7.119 -5.6290002 0.078000002 9.0758953
7.1750002 -5.6539998 0.078000002 9.1353388
7.21 -5.645 0.077 9.1572952
7.2740002 -5.658 0.075999998 9.2157373
7.3249998 -5.6609998 0.075999998 9.2578783
7.4380002 -5.6739998 0.074000001 9.3554049
7.5040002 -5.6869998 0.074000001 9.4158096
7.5339999 -5.6900001 0.072999999 9.441535
7.6059999 -5.7069998 0.071999997 9.5092726
7.724 -5.7199998 0.071000002 9.611639
7.7639999 -5.7119999 0.07 9.6390629
7.836 -5.7270002 0.07 9.7059946
7.8769999 -5.7379999 0.068999998 9.7455902
7.9419999 -5.7470002 0.068000004 9.8034687
8.0249996 -5.743 0.12800001 9.8690958
8.0819998 -5.7459998 0.12800001 9.9172382
8.1520004 -5.757 0.127 9.9806957
8.2060003 -5.757 0.127 10.02485
8.2679996 -5.7620001 0.127 10.078522
8.3940001 -5.7919998 0.126 10.199136
8.46 -5.7979999 0.125 10.256902
8.5159998 -5.7979999 0.125 10.30314
8.5819998 -5.803 0.124 10.360545
8.651 -5.8109999 0.124 10.422231
8.7790003 -5.8369999 0.123 10.54308
8.8450003 -5.8410001 0.122 10.600292
8.9189997 -5.8499999 0.122 10.667049
8.9899998 -5.8569999 0.121 10.730292
9.1280003 -5.8649998 0.12 10.850484
9.1990004 -5.8909998 0.12 10.924279
9.2729998 -5.8979998 0.119 10.990409
9.3540001 -5.908 0.119 11.064174
9.4219999 -5.9099998 0.118 11.122774
9.5810003 -5.927 0.117 11.266703
9.6630001 -5.9349999 0.117 11.3407
9.7379999 -5.961 0.116 11.418215
9.8070002 -5.961 0.116 11.477118
9.9809999 -5.9809999 0.114 11.636396
10.058 -5.9850001 0.114 11.704554
10.145 -5.994 0.113 11.783966
10.231 -6.0229998 0.112 11.87276
10.386 -6.027 0.111 12.008582
10.488 -6.0430002 0.111 12.104888
10.569 -6.0450001 0.11 12.17612
10.656 -6.0510001 0.109 12.254665
10.758 -6.0650001 0.109 12.350331
11.289 -6.296 0.104 12.926405
11.394 -6.3080001 0.103 13.024005
11.483 -6.3099999 0.103 13.102901
11.599 -6.3260002 0.102 13.212323
11.701 -6.335 0.101 13.306232
11.807 -6.3439999 0.1 13.40379
12.028 -6.3899999 0.098999999 13.620378
12.118 -6.3899999 0.097999997 13.699914
12.234 -6.402 0.097000003 13.808178
12.355 -6.4169998 0.096000001 13.922396
12.686 -6.4959998 0.184 14.253647
12.821 -6.5139999 0.184 14.382075
12.936 -6.5209999 0.184 14.487836
13.053 -6.5289998 0.184 14.595976
13.181 -6.5409999 0.184 14.715886
13.318 -6.5570002 0.183 14.845769
13.565 -6.598 0.183 15.085632
13.706 -6.6139998 0.183 15.219492
13.837 -6.6230001 0.183 15.341454
13.983 -6.6389999 0.182 15.480107
14.121 -6.6500001 0.182 15.609557
14.517 -6.7519999 0.182 16.011431
14.653 -6.7589998 0.18099999 16.137758
14.787 -6.7639999 0.18099999 16.261606
15.017 -6.8130002 0.18099999 16.491211
15.216 -6.8449998 0.18099999 16.685726
15.347 -6.8460002 0.18000001 16.80567
15.617 -6.8779998 0.18000001 17.06546
15.822 -6.908 0.18000001 17.26524
16.009001 -6.9299998 0.17900001 17.445488
16.198 -6.9510002 0.17900001 17.627356
16.313999 -6.9400001 0.17900001 17.729698
32.902 -13.776 0.31900001 35.671021
32.749001 -13.591 0.31900001 35.458626
32.768002 -13.478 0.31799999 35.433029
18.698 -7.6399999 0.175 20.199392
18.674 -7.5619998 0.175 20.147772
18.686001 -7.4980001 0.175 20.134975
18.766001 -7.428 0.175 20.183374
32.817001 -12.84 0.31799999 35.240917
32.855 -12.736 0.31799999 35.238583
32.874001 -12.625 0.31799999 35.216354
32.880001 -12.508 0.31799999 35.180187
32.904999 -12.341 0.31799999 35.144562
33.196999 -12.332 0.31799999 35.41497
23.408001 -8.6040001 0.285 24.940821
32.945 -12.003 0.317 35.064877
32.953999 -11.889 0.317 35.034481
23.368 -8.3389997 0.285 24.812973
23.316 -8.1969995 0.285 24.716551
33.007 -11.499 0.317 34.954105
33.040001 -11.394 0.317 34.950897
23.943001 -8.1660004 0.287 25.298878
33.043999 -11.164 0.317 34.880386
33.063999 -10.997 0.317 34.846268
24.559 -8.0760002 0.28799999 25.854385
33.081001 -10.773 0.31600001 34.792385
33.118999 -10.67 0.31600001 34.796795
33.118 -10.555 0.31600001 34.76075
33.145 -10.449 0.31600001 34.754459
29.796 -9.2360001 0.30500001 31.196127
29.941999 -9.1789999 0.30599999 31.318859
27.801001 -8.4250002 0.29800001 29.051077
30.204 -9.052 0.30599999 31.532743
29.688 -8.6940002 0.30399999 30.936312
0 0 0 0
33.105 -9.5290003 0.315 34.450577
33.244999 -9.4560003 0.31600001 34.565094
33.258999 -9.3470001 0.31600001 34.548912
33.293999 -9.1309996 0.31600001 34.524853
33.306999 -9.0229998 0.31600001 34.508991
33.328999 -8.9720001 0.31600001 34.516933
33.953999 -9.0270004 0.31799999 35.134907
35.432999 -9.1829996 0.322 36.605034
35.955002 -9.198 0.324 37.114288
36.823002 -9.2980003 0.32699999 37.980167
37.827 -9.4890003 0.33000001 39.000408
39.448002 -9.6339998 0.33500001 40.608757
40.396 -9.7309999 0.338 41.552898
41.727001 -9.9139996 0.34200001 42.889938
42.877998 -10.046 0.34599999 44.040489
43.611 -10.074 0.34799999 44.760761
46.416 -10.494 0.35699999 47.588829
47.474998 -10.577 0.36000001 48.640293
49.233002 -10.807 0.366 50.406487
50.514 -10.923 0.37 51.682816
53.516998 -11.398 0.37900001 54.718616
35.425999 -7.362 0.32100001 36.184299
56.564999 -11.585 0.389 57.740479
57.117001 -11.511 0.38999999 58.266689
60.431999 -11.984 0.40099999 61.610096
61.198002 -11.936 0.403 62.352432
62.164001 -11.922 0.40599999 63.298199
64.134003 -11.988 0.412 65.246086
64.920998 -11.924 0.41499999 66.008255
0 0 0 0
0 0 0 0
0 0 0 0
0 0 0 0
0 0 0 0
0 0 0 0
0 0 0 0
0 0 0 0
75.349998 -11.339 0.977 76.204659
0 0 0 0
61.939999 -8.9770002 0.40400001 62.588444
62.205002 -8.816 0.405 62.827927
0 0 0 0
0 0 0 0
0 0 0 0
0 0 0 0
0 0 0 0
0 0 0 0
0 0 0 0
0 0 0 0
0 0 0 0
0 0 0 0
0 0 0 0
0 0 0 0
0 0 0 0
0 0 0 0
0 0 0 0
0 0 0 0
0 0 0 0
0 0 0 0
0 0 0 0
0 0 0 0
0 0 0 0
0 0 0 0
0 0 0 0
72.803001 -3.9679999 0.43700001 72.912361
72.789001 -3.7379999 0.43700001 72.88623
29.917 -1.427 0.301 29.952524
0 0 0 0
26.599001 -1.098 0.29100001 26.623243
24.868999 -0.94700003 0.285 24.888657
24.82 -0.86699998 0.285 24.836775
24.834 -0.75 0.285 24.846956
24.851999 -0.67299998 0.285 24.862745
24.851999 -0.59500003 0.285 24.860754
24.868 -0.51700002 0.285 24.875006
24.872999 -0.43900001 0.285 24.878506
24.877001 -0.361 0.285 24.881252
24.896 -0.244 0.285 24.898827
24.895 -0.16500001 0.285 24.897179
24.917 -0.086999997 0.285 24.918781
24.915001 -0.0089999996 0.285 24.916632
24.927 0.068999998 0.285 24.928726
24.945 0.18700001 0.285 24.947329
24.941999 0.26499999 0.285 24.945036
24.948999 0.34400001 0.285 24.952999
24.964001 0.42199999 0.28600001 24.969206
24.950001 0.50099999 0.285 24.956657
24.957001 0.579 0.285 24.965343
24.957001 0.69700003 0.28600001 24.968369
24.969 0.77600002 0.28600001 24.982691
24.979 0.85399997 0.28600001 24.99523
24.996 0.93400002 0.28600001 25.015079
25.018999 1.013 0.28600001 25.041132
25.09 1.1339999 0.28600001 25.117243
32.195999 1.55 0.308 32.23476
32.053001 1.6440001 0.308 32.096611
32.186001 1.752 0.308 32.235119
31.268 1.9 0.30599999 31.327168
30.686001 1.913 0.30399999 30.747076
30.261999 1.983 0.30199999 30.328403
30.298 2.0810001 0.303 30.370893
29.327999 2.108 0.29899999 29.40518
29.191999 2.2820001 0.29899999 29.282585
29.207001 2.3759999 0.29899999 29.305012
29.014 2.4059999 0.29899999 29.115124
28.805 2.48 0.29800001 28.913097
28.707001 2.563 0.29800001 28.822729
28.698 2.744 0.29800001 28.830427
28.382999 2.8039999 0.29699999 28.522715
24.750999 2.527 0.285 24.881298
24.764 2.5680001 0.285 24.898424
24.962999 2.747 0.28600001 25.115316
27.792 3.1429999 0.29499999 27.970713
27.84 3.237 0.29499999 28.029106
27.732 3.313 0.29499999 27.93075
26.066999 3.1570001 0.28999999 26.259079
27.82 3.5450001 0.29499999 28.046505
27.556999 3.5999999 0.294 27.792707
23.591999 3.161 0.28200001 23.804493
23.521 3.227 0.28200001 23.74301
23.596001 3.313 0.28200001 23.829115
21.805 3.1429999 0.17200001 22.031025
23.848 3.539 0.28299999 24.110823
22.458 3.4070001 0.278 22.716661
23.711 3.671 0.28200001 23.995152
21.993999 3.4779999 0.27700001 22.26902
22.035999 3.556 0.27700001 22.322794
21.24 3.5309999 0.27500001 21.533258
21.236 3.599 0.27500001 21.540569
20.527 3.5190001 0.17399999 20.827179
23.007999 4.046 0.28 23.362719
19.599001 3.517 0.176 19.912838
19.476 3.5580001 0.176 19.799114
19.656 3.655 0.175 19.9937
19.202 3.6329999 0.176 19.543451
19.108 3.7390001 0.176 19.471178
19.069 3.7939999 0.176 19.443563
19.063 3.8239999 0.176 19.443558
19.002001 3.8740001 0.176 19.393682
19.040001 3.944 0.176 19.444994
19.027 4.066 0.176 19.457392
19.024 4.1279998 0.176 19.46751
18.527 4.0799999 0.177 18.971756
19.086 4.2360001 0.176 19.551218
19.021999 4.3470001 0.176 19.513172
18.830999 4.3660002 0.177 19.331318
18.965 4.46 0.176 19.483168
20.743 4.9070001 0.27399999 21.317265
20.620001 4.9809999 0.27399999 21.214851
20.275999 5.006 0.17399999 20.885555
20.32 5.0840001 0.17399999 20.947069
20.247999 5.1339998 0.17399999 20.889463
20.326 5.2220001 0.17399999 20.986801
20.233 5.2659998 0.17399999 20.90778
20.281 5.3800001 0.17399999 20.983175
20.194 5.4250002 0.17399999 20.910728
20.104 5.4689999 0.17399999 20.835331
20.01 5.5110002 0.17399999 20.755758
20.596001 5.77 0.27399999 21.390728
19.993999 5.6420002 0.17399999 20.775524
21.502001 6.132 0.27700001 22.360996
20.514 5.9910002 0.27399999 21.372677
24.657 7.2789998 0.28799999 25.71059
24.628 7.355 0.28799999 25.704422
24.891001 7.5180001 0.289 26.003187
22.094999 6.7150002 0.28 23.094559
21.722 6.7509999 0.27900001 22.748606
21.809999 6.8530002 0.27900001 22.863016
21.75 6.9099998 0.27900001 22.822981
21.844999 6.9899998 0.171 22.936724
21.412001 6.9879999 0.278 22.525167
21.773001 7.1820002 0.27900001 22.92864
21.631001 7.184 0.171 22.793404
21.898001 7.3759999 0.28 23.108574
20.044001 6.823 0.27399999 21.17523
21.556999 7.4120002 0.27900001 22.797363
22.965 8.0150003 0.28299999 24.325121
39.577999 13.934 0.33899999 41.960567
39.555 14.065 0.33899999 41.982582
34.952 12.556 0.324 37.140282
19.716999 7.2069998 0.17399999 20.993599
35.174999 12.886 0.32499999 37.462448
39.688 14.748 0.34 42.340954
39.679001 14.886 0.34 42.380795
39.699001 15.036 0.34099999 42.452423
32.488998 12.428 0.31600001 34.78635
34.806999 13.438 0.324 37.312359
0 0 0 0
32.470001 12.831 0.317 34.914696
32.612 13.005 0.317 35.110867
14.561 5.8930001 0.182 15.709338
14.494 5.9190001 0.182 15.657066
17.059 7.0339999 0.178 18.453138
16.943001 7.0799999 0.178 18.363642
16.886999 7.119 0.178 18.327099
16.844999 7.1630001 0.178 18.30558
16.830999 7.2199998 0.178 18.315092
16.801001 7.27 0.178 18.307327
14.352 6.2859998 0.182 15.669295
16.85 7.448 0.178 18.423542
32.198002 14.39 0.31799999 35.268745
25.466 11.484 0.29499999 27.937187
14.549 6.592 0.182 15.97376
25.084 11.482 0.164 27.587502
25.436001 11.712 0.29499999 28.004431
0 0 0 0
0 0 0 0
16.076 7.625 0.17900001 17.79355
15.938 7.6209998 0.17900001 17.667244
15.809 7.6500001 0.17900001 17.563572
8.9130001 4.3410001 0.12800001 9.9147482
8.8760004 4.3699999 0.067000002 9.8936729
8.8439999 4.3889999 0.067000002 9.8734055
8.75 4.3759999 0.068000004 9.7834806
8.7679996 4.4200001 0.068000004 9.8193092
12.732 6.48 0.184 14.28734
12.662 6.4949999 0.184 14.231834
12.521 6.5050001 0.094999999 14.110261
12.593 6.559 0.184 14.199929
12.578 6.652 0.184 14.229864
12.473 6.6300001 0.094999999 14.125921
12.454 6.6960001 0.094999999 14.140282
12.303 6.664 0.096000001 13.992209
12.294 6.71 0.096000001 14.006275
12.233 6.7259998 0.096000001 13.960464
12.436 6.8800001 0.184 14.213457
12.441 6.934 0.184 14.24404
0 0 0 0
0 0 0 0
8.4510002 4.8239999 0.068999998 9.731143
11.231 6.48 0.104 12.966749
11.229 6.526 0.104 12.98807
12.436 7.2690001 0.184 14.405774
28.264 16.691999 0.31 32.826401
28.267 16.813 0.31 32.890675
28.257 16.927999 0.31099999 32.941036
29.091 17.551001 0.31400001 33.976795
28.415001 17.327 0.31200001 33.282646
28.396 17.438 0.31200001 33.324375
28.129 17.396 0.31099999 33.075039
28.009001 17.444 0.31099999 32.998394
27.916 17.629999 0.31099999 33.018429
27.966 17.724001 0.31099999 33.110935
28.023001 17.882999 0.31200001 33.244362
27.886 17.919001 0.31099999 33.148396
27.940001 18.079 0.31200001 33.280491
27.358 17.947001 0.31 32.720802
28.771999 18.938 0.315 34.446697
28.601 18.954 0.315 34.312836
28.368 18.929001 0.31400001 34.104973
28.174 19.056 0.31400001 34.014763
27.747 18.895 0.31299999 33.571045
27.591 18.916 0.31200001 33.454082
27.575001 18.969 0.31200001 33.470898
27.556 19.084 0.31200001 33.520584
27.816 19.523001 0.31400001 33.98494
27.698999 19.570999 0.31400001 33.916916
27.523001 19.577 0.31299999 33.776802
27.478001 19.674999 0.31299999 33.797104
27.504999 19.891001 0.31400001 33.945183
27.452999 19.985001 0.31400001 33.958298
27.408001 20.084 0.31400001 33.98035
46.080002 33.967999 0.38699999 57.248066
46.105 34.209999 0.38800001 57.412071
35.498001 26.521 0.34599999 44.312428
35.466999 26.759001 0.347 44.430534
35.351002 26.846001 0.347 44.390556
35.389 27.049999 0.347 44.544407
35.331001 27.181999 0.347 44.578709
35.396 27.409 0.34799999 44.768864
36.681 28.681 0.354 46.564156
35.879002 28.236 0.35100001 45.658489
35.654999 28.242001 0.34999999 45.486397
35.574001 28.360001 0.34999999 45.496391
36.271 29.101999 0.35299999 46.504154
36.32 29.329 0.354 46.684662
34.528 28.153 0.347 44.552155
33.877998 27.802 0.345 43.826805
33.759998 27.882 0.345 43.786552
33.569 27.903 0.34400001 43.652874
33.543999 28.061001 0.345 43.734867
19.892 16.787001 0.16599999 26.029264
11.01 9.3959999 0.184 14.475454
10.946 9.3999996 0.184 14.429441
10.888 9.4099998 0.184 14.392028
10.834 9.4230003 0.184 14.359748
10.78 9.4359999 0.184 14.327608
10.677 9.4350004 0.184 14.249611
10.616 9.4399996 0.184 14.207284
10.567 9.4560003 0.184 14.181372
10.467 9.4060001 0.094999999 14.072667
10.398 9.4040003 0.094999999 14.02008
10.352 9.4219999 0.096000001 13.998115
10.255 9.4219999 0.096000001 13.926534
10.2 9.4309998 0.096000001 13.892191
10.151 9.4449997 0.097000003 13.865794
10.085 9.4429998 0.097000003 13.816182
9.9890003 9.4720001 0.097000003 13.766203
9.9399996 9.4540005 0.097999997 13.718284
9.8809996 9.4580002 0.097999997 13.67836
9.8380003 9.4759998 0.097999997 13.65981
9.7799997 9.4790001 0.098999999 13.620192
9.6809998 9.5030003 0.098999999 13.566082
9.6160002 9.4980001 0.098999999 13.516259
9.5860004 9.4989996 0.1 13.495644
9.5380001 9.5109997 0.1 13.470061
9.4359999 9.5279999 0.1 13.410104
9.3850002 9.5369997 0.1 13.38068
9.3269997 9.5369997 0.101 13.340071
9.2840004 9.5539999 0.101 13.322229
9.2510004 9.5500002 0.101 13.29638
9.1450005 9.5600004 0.102 13.230082
9.0959997 9.5679998 0.102 13.202055
9.0489998 9.5799999 0.102 13.178437
8.9899998 9.5769997 0.102 13.135807
8.9569998 9.573 0.103 13.110332
8.8620005 9.5909996 0.103 13.058825
8.8170004 9.6020002 0.103 13.036429
8.7629995 9.6049995 0.103 13.002184
8.7159996 9.6129999 0.104 12.976488
8.6719999 9.6260004 0.104 12.956631
8.5830002 9.6169996 0.104 12.890515
8.5380001 9.6280003 0.105 12.868833
8.4899998 9.6350002 0.105 12.842288
8.441 9.6409998 0.105 12.81446
8.3900003 9.6429996 0.105 12.782433
8.3500004 9.6590004 0.105 12.768313
8.2700005 9.6569996 0.106 12.714628
8.224 9.665 0.106 12.690848
8.1759996 9.6709995 0.106 12.664376
8.1289997 9.6759996 0.106 12.637913
8.085 9.6850004 0.107 12.616572
8.0410004 9.6949997 0.107 12.596116
7.9590001 9.6879997 0.107 12.538519
7.9159999 9.6969995 0.107 12.518239
7.8670001 9.7010002 0.108 12.490427
7.823 9.7080002 0.108 12.468209
7.7800002 9.717 0.108 12.448298
7.7069998 9.7189999 0.108 12.404373
7.6599998 9.7229996 0.108 12.378367
7.612 9.7250004 0.109 12.350307
7.5700002 9.7349997 0.109 12.332356
7.526 9.7410002 0.109 12.310143
7.4499998 9.7370005 0.109 12.260651
7.4120002 9.7510004 0.109 12.24874
7.3670001 9.7550001 0.11 12.224762
7.3249998 9.7629995 0.11 12.205895
7.2800002 9.7670002 0.11 12.182151
7.2010002 9.7559996 0.11 12.126254
7.164 9.7709999 0.11 12.116412
6.0739999 8.3459997 0.125 10.323023
6.0370002 8.3500004 0.125 10.304538
6.0019999 8.3559999 0.125 10.288944
5.9260001 8.3610001 0.125 10.248874
5.9070001 8.3620005 0.125 10.238717
5.8740001 8.3710003 0.125 10.227079
5.8299999 8.3649998 0.126 10.19696
5.7950001 8.3699999 0.126 10.181101
5.723 8.3780003 0.126 10.146895
5.691 8.3879995 0.126 10.137155
5.6700001 8.3850002 0.126 10.122895
5.6339998 8.3900003 0.126 10.106925
5.5650001 8.3999996 0.127 10.076971
5.5279999 8.4020004 0.127 10.058256
5.494 8.408 0.127 10.044632
5.46 8.4130001 0.127 10.03027
5.441 8.4119997 0.127 10.019099
5.368 8.4160004 0.127 9.983016
5.3379998 8.427 0.127 9.9762068
5.2979999 8.4219999 0.12800001 9.9506416
5.263 8.4250002 0.12800001 9.9345951
5.23 8.4320002 0.12800001 9.9230995
5.178 8.4359999 0.12800001 9.8991995
5.1479998 8.4469995 0.12800001 9.892931
5.1100001 8.4440002 0.12800001 9.8706446
5.079 8.4530001 0.12800001 9.8623438
5.0409999 8.4709997 0.067000002 9.857688
5.0209999 8.467 0.068000004 9.8440418
4.987 8.4700003 0.068000004 9.8293285
4.9159999 8.4700003 0.068000004 9.7934971
4.8860002 8.4799995 0.068000004 9.7871351
4.8569999 8.4910002 0.068000004 9.7822371
4.8200002 8.4879999 0.068999998 9.7613163
4.7709999 8.4949999 0.068999998 9.7433167
4.7379999 8.4980001 0.068999998 9.7298203
4.704 8.5 0.068999998 9.7150593
4.6750002 8.5100002 0.068999998 9.7098141
4.6409998 8.5120001 0.07 9.6952524
4.6100001 8.5179996 0.07 9.6857281
4.5549998 8.5129995 0.07 9.655262
4.5250001 8.5200005 0.07 9.6473274
4.493 8.5240002 0.071000002 9.6359053
4.4689999 8.5430002 0.07 9.6415615
4.4299998 8.5340004 0.071000002 9.6155663
4.3800001 8.5369997 0.071000002 9.5953016
4.3499999 8.5439997 0.071000002 9.587882
4.3210001 8.5539999 0.071000002 9.583684
4.2930002 8.5640001 0.071000002 9.5800304
4.257 8.559 0.071999997 9.5594826
4.2210002 8.5550003 0.071999997 9.5399189
4.1750002 8.5620003 0.071999997 9.5259466
4.1430001 8.5640001 0.071999997 9.5137653
4.1110001 8.5679998 0.071999997 9.50348
4.0830002 8.5769997 0.071999997 9.499526
4.0479999 8.5740004 0.072999999 9.4818306
4.0229998 8.5900002 0.072999999 9.485671
3.973 8.5889997 0.072999999 9.463666
3.9419999 8.592 0.072999999 9.4534197
3.9100001 8.5939999 0.072999999 9.4419413
3.885 8.6110001 0.072999999 9.4471092
3.8180001 8.6059999 0.074000001 9.4151917
3.8050001 8.6120005 0.074000001 9.4154158
3.7739999 8.6149998 0.074000001 9.4056778
3.7409999 8.6140003 0.074000001 9.3915682
3.7190001 8.6370001 0.074000001 9.4039469
3.6470001 8.6190004 0.074000001 9.359127
3.642 8.6440001 0.074000001 9.3802118
3.6040001 8.6309996 0.074000001 9.3535261
3.5710001 8.6269999 0.075000003 9.3371725
3.506 8.6219997 0.075000003 9.3078756
3.4790001 8.6330004 0.075000003 9.3079405
3.454 8.6490002 0.075000003 9.3134823
3.431 8.632 0.075000003 9.2891769
3.404 8.6429996 0.075000003 9.2894716
3.3440001 8.6490002 0.075999998 9.2732582
3.313 8.651 0.075999998 9.2639914
3.29 8.6719999 0.075999998 9.2754221
3.253 8.6560001 0.075999998 9.247385
3.2119999 8.6700001 0.075999998 9.2461672
3.1760001 8.6549997 0.075999998 9.2196407
3.1500001 8.6689997 0.075999998 9.2238731
3.1229999 8.6789999 0.075999998 9.2240963
3.0929999 8.6809998 0.075999998 9.2158661
3.0610001 8.6789999 0.077 9.2032976
3.017 8.684 0.077 9.1934795
2.987 8.684 0.077 9.1836786
2.9619999 8.7010002 0.077 9.1916685
2.927 8.6879997 0.077 9.168129
2.898 8.691 0.077 9.1617584
2.872 8.7060003 0.077 9.1678104
2.825 8.698 0.077 9.145587
2.8 8.7150002 0.077 9.1540785
2.766 8.7030001 0.078000002 9.132308
2.7379999 8.7089996 0.078000002 9.1295891
2.7130001 8.7250004 0.077 9.137392
2.6789999 8.7130003 0.078000002 9.1158924
2.6389999 8.7309999 0.078000002 9.1214447
2.605 8.7159996 0.078000002 9.0972939
2.579 8.7279997 0.078000002 9.1013899
2.553 8.7419996 0.078000002 9.1074934
2.517 8.7209997 0.078000002 9.0772905
2.48 8.7469997 0.078000002 9.0921106
2.4489999 8.743 0.078000002 9.0798531
2.4159999 8.7270002 0.079000004 9.0555964
2.3929999 8.7539997 0.078000002 9.0755186
2.3340001 8.7519999 0.079000004 9.058217
2.322 8.7629995 0.079000004 9.0657644
2.2869999 8.743 0.079000004 9.0375137
2.2869999 8.8549995 0.077 9.1458902
2.605 10.308 0.122 10.632769
2.572 10.314 0.122 10.630553
2.536 10.309 0.122 10.617046
2.5039999 10.318 0.122 10.618193
2.451 10.313 0.122 10.600955
2.4200001 10.326 0.122 10.606487
0 0 0 0
2.355 10.339 0.122 10.604519
2.323 10.348 0.122 10.606239
2.2709999 10.344 0.122 10.591065
2.237 10.347 0.123 10.58677
2.2049999 10.354 0.123 10.586901
2.1730001 10.365 0.122 10.591036
2.1559999 10.448 0.122 10.66883
2.1040001 10.358 0.123 10.570247
2.0550001 10.368 0.123 10.570411
2.0239999 10.381 0.123 10.577186
1.989 10.379 0.123 10.56858
1.957 10.385 0.123 10.568501
1.924 10.389 0.123 10.566372
1.873 10.39 0.123 10.558189
1.841 10.398 0.123 10.560436
1.807 10.398 0.123 10.554562
1.778 10.423 0.123 10.574278
1.742 10.411 0.123 10.556449
1.677 10.42 0.123 10.554803
1.661 10.425 0.123 10.55721
1.627 10.424 0.123 10.550925
1.596 10.439 0.123 10.561017
1.529 10.439 0.123 10.551099
1.495 10.437 0.123 10.544247
1.464 10.454 0.123 10.55673
1.446 10.444 0.123 10.544344
1.414 10.459 0.123 10.554866
1.349 10.471 0.123 10.558256
1.3150001 10.464 0.123 10.547021
1.283 10.476 0.123 10.554989
1.265 10.472 0.123 10.548845
1.2 10.479 0.123 10.548203
1.1670001 10.487 0.123 10.55245
1.133 10.481 0.123 10.542778
1.101 10.49 0.123 10.548338
1.068 10.496 0.123 10.550914
1.018 10.493 0.123 10.542984
0.98699999 10.516 0.123 10.562933
0.95200002 10.503 0.123 10.546774
0.92000002 10.512 0.123 10.552898
0.88700002 10.515 0.123 10.553062
0.85399997 10.521 0.123 10.556319
0.80500001 10.531 0.123 10.562439
0.77200001 10.53 0.123 10.558978
0.73900002 10.544 0.123 10.57058
0.70599997 10.544 0.123 10.568325
0.67299998 10.548 0.123 10.570164
0.639 10.537 0.123 10.557074
0.58899999 10.539 0.123 10.556163
0.55699998 10.561 0.123 10.576393
0.52399999 10.565 0.123 10.578701
0.491 10.567 0.123 10.579117
0.458 10.56 0.123 10.570643
0.41999999 10.464 0.123 10.473147
0.37 10.443 0.124 10.450288
0.34200001 10.578 0.123 10.584242
0.30899999 10.591 0.122 10.596209
0.27500001 10.578 0.123 10.582289
0.226 10.592 0.122 10.595114
0.192 10.586 0.123 10.588456
0.15899999 10.591 0.122 10.592896
0.126 10.607 0.122 10.60845
0.059999999 10.616 0.122 10.616871
0.026000001 10.604 0.122 10.604733
-0.0070000002 10.614 0.122 10.614704
-0.024 10.614 0.122 10.614729
-0.057 10.626 0.122 10.626854
-0.124 10.639 0.122 10.640422
-0.15700001 10.635 0.122 10.636859
-0.191 10.648 0.122 10.650412
-0.208 10.632 0.122 10.634734
0 0 0 0
-0.42399999 16.021 0.182 16.027641
-0.52100003 15.924 0.182 15.93356
0 0 0 0
-0.50099999 13.208 0.102 13.217893
-0.56300002 13.206 0.102 13.21839
-0.60600001 13.246 0.101 13.260241
-0.648 13.24 0.101 13.256233
-0.69 13.262 0.101 13.280322
-0.73000002 13.218 0.102 13.238536
-0.75999999 13.014 0.103 13.036579
-0.81900001 12.972 0.104 12.998244
-0.861 12.991 0.103 13.019908
-0.89700001 12.913 0.104 12.944535
-0.93800002 12.918 0.104 12.952428
-0.97299999 12.845 0.104 12.882219
-1.001 12.676 0.106 12.715903
-1.029 12.283 0.109 12.326509
-1.079 12.417 0.108 12.46426
-1.097 12.173 0.11 12.222825
-1.149 12.322 0.108 12.375926
-1.2029999 12.482 0.107 12.540295
-1.136 11.206 0.117 11.264041
-1.175 11.239 0.117 11.300859
-1.317 12.249 0.109 12.32008
-1.332 12.02 0.111 12.094088
-1.425 12.165 0.109 12.248663
-1.45 12.218 0.109 12.304224
-1.505 12.349 0.108 12.44084
-1.428 11.403 0.115 11.492642
-1.492 11.621 0.114 11.716941
-1.608 11.938 0.111 12.04632
-1.67 12.115 0.11 12.230054
-1.584 11.346 0.116 11.456623
-1.755 12.303 0.108 12.428013
-1.642 11.243 0.116 11.362864
-1.869 12.276 0.108 12.417931
-1.897 12.197 0.109 12.34412
-1.932 12.172 0.109 12.324857
-1.966 12.263 0.108 12.420064
-2.0250001 12.142 0.109 12.310186
-2.0739999 12.197 0.108 12.372547
-2.098 12.108 0.109 12.288903
-2.1489999 12.18 0.108 12.3686
-2.27 12.638 0.105 12.840675
-2.0369999 11.023 0.118 11.210255
-2.0810001 11.064 0.117 11.258612
-2.1500001 11.238 0.116 11.442404
-2.6719999 13.765 0.094999999 14.022263
-2.9200001 14.83 0.183 15.115846
-2.5139999 12.418 0.106 12.670365
-3.2320001 15.626 0.182 15.957784
-3.072 14.721 0.086999997 15.03837
-2.539 11.955 0.11 12.222137
-2.631 12.203 0.108 12.483871
-2.648 12.093 0.108 12.379992
-2.6630001 11.895 0.11 12.189943
-2.7939999 12.303 0.107 12.616723
-2.79 12.105 0.108 12.422833
-2.77 11.846 0.11 12.166047
-2.8239999 11.91 0.109 12.240709
-2.8499999 11.854 0.11 12.192289
-2.809 11.442 0.113 11.782302
-2.898 11.647 0.111 12.002639
-2.868 11.372 0.114 11.728631
-2.9860001 11.688 0.111 12.063908
-2.9549999 11.416 0.113 11.792789
-3.1199999 11.825 0.11 12.230173
-3.0669999 11.475 0.112 11.878327
-3.0999999 11.456 0.112 11.86855
-3.1659999 11.556 0.112 11.982372
-3.253 11.586 0.111 12.034523
-3.2460001 11.422 0.112 11.874811
-3.2880001 11.501 0.112 11.962295
-3.303 11.418 0.112 11.886677
-3.348 11.438 0.112 11.918451
-3.5 11.689 0.11 12.202247
-3.4300001 11.324 0.113 11.83261
-3.444 11.24 0.113 11.756339
-3.4419999 11.172 0.114 11.690763
-3.4679999 11.13 0.114 11.658341
-3.4890001 10.954 0.115 11.496803
-3.5209999 10.935 0.115 11.488468
-3.553 10.916 0.115 11.480248
-3.5829999 10.892 0.116 11.466779
-3.618 10.827 0.116 11.416099
-3.6429999 10.787 0.116 11.386144
-3.6860001 10.802 0.116 11.414169
-3.717 10.783 0.116 11.406254
-3.7590001 10.796 0.116 11.432285
-3.7939999 10.786 0.116 11.434408
-3.839 10.751 0.116 11.416452
-3.8740001 10.745 0.116 11.422626
-3.9200001 10.766 0.116 11.458036
-3.9530001 10.752 0.116 11.456228
-3.9749999 10.708 0.116 11.422581
-4.0419998 10.732 0.116 11.468525
-4.0710001 10.706 0.116 11.454473
-4.1090002 10.706 0.116 11.468034
-4.1490002 10.71 0.115 11.486145
-4.197 10.733 0.115 11.524987
-4.2350001 10.73 0.115 11.536089
-4.302 10.751 0.115 11.580347
-4.3410001 10.753 0.115 11.596746
-4.3839998 10.761 0.114 11.620309
-4.4250002 10.764 0.114 11.638614
-4.4710002 10.781 0.114 11.671881
-4.5180001 10.799 0.114 11.706567
-4.6240001 10.908 0.113 11.848148
-4.671 10.923 0.112 11.88035
-4.7410002 10.991 0.112 11.970452
-4.79 11.009 0.111 12.006435
-4.9000001 11.072 0.111 12.108323
-13.066 29.476999 0.308 32.244514
0 0 0 0
-13.287 29.229 0.308 32.10878
0 0 0 0
-5.2119999 11.249 0.108 12.39825
-5.2449999 11.229 0.108 12.394035
-13.077 27.716999 0.303 30.64852
-13.166 27.68 0.303 30.653185
-13.146 27.414 0.303 30.404547
-13.166 27.236 0.30199999 30.252842
-13.173 26.926001 0.301 29.977125
-13.239 26.846001 0.301 29.93442
-13.346 26.851 0.301 29.986372
-13.413 26.773001 0.301 29.946497
-13.5 26.738001 0.301 29.954321
-13.862 27.243 0.303 30.568413
-13.484 26.191999 0.30000001 29.460638
-13.699 26.405001 0.301 29.748568
-13.321 25.479 0.29699999 28.752682
-13.365 25.368 0.29699999 28.674847
-13.39 25.223 0.29699999 28.558361
-13.41 25.07 0.296 28.432739
-13.469 24.898001 0.296 28.309221
-13.49 24.75 0.296 28.189186
-13.513 24.607 0.29499999 28.074768
-13.536 24.466999 0.29499999 27.963268
-13.555 24.320999 0.29499999 27.844856
-13.575 24.177 0.294 27.728945
-13.561 23.888 0.29300001 27.470406
-13.585 23.754999 0.29300001 27.366734
-13.611 23.627001 0.29300001 27.268671
-13.624 23.479 0.292 27.147045
-13.643 23.343 0.292 27.039089
-13.704 23.195 0.292 26.9424
-13.817 23.219 0.292 27.020672
-13.922 23.231001 0.292 27.084806
-14.022 23.231001 0.292 27.136345
-14.237 23.256001 0.29300001 27.26939
-14.299 23.275999 0.29300001 27.318848
-14.415 23.299999 0.29300001 27.400146
-14.534 23.327999 0.29300001 27.486698
-14.633 23.323 0.294 27.53495
-14.867 23.368999 0.294 27.698812
-14.969 23.368 0.294 27.752853
-15.077 23.374001 0.294 27.816294
-15.158 23.42 0.29499999 27.898895
-15.38 23.438 0.29499999 28.035179
-15.494 23.451 0.29499999 28.108727
-15.603 23.455999 0.296 28.173128
-15.718 23.468 0.296 28.246952
-15.833 23.48 0.296 28.321051
-16.016001 23.511999 0.296 28.450203
-16.143999 23.541 0.29699999 28.546375
-16.184 23.441 0.29699999 28.486673
-14.423 20.746 0.28600001 25.268581
-14.634 20.909 0.287 25.522984
-14.074 19.906 0.28400001 24.380463
-14.134 19.858999 0.28400001 24.376842
-14.386 20.08 0.285 24.703131
-14.213 19.705999 0.28299999 24.298475
-14.364 19.785 0.28400001 24.451
-14.82 20.278999 0.28600001 25.118759
-14.831 20.094999 0.28600001 24.976976
-14.869 20.014 0.285 24.934486
-14.461 19.336 0.28299999 24.147081
-14.39 19.115999 0.28200001 23.928499
-14.484 19.115999 0.28200001 23.985146
-14.418 18.903999 0.28200001 23.776445
-15.069 19.566999 0.285 24.698654
-18.459999 23.825001 0.30199999 30.141224
-14.575 18.68 0.28099999 23.694979
-14.577 18.562 0.28099999 23.603298
-14.683 18.577 0.28099999 23.680676
-15.03 18.893999 0.28299999 24.144651
-14.862 18.503 0.28200001 23.734356
-14.908 18.441 0.28200001 23.714943
-14.915 18.332001 0.28099999 23.634687
-14.961 18.271 0.28099999 23.616518
-15.188 18.312 0.28200001 23.792524
-14.364 17.261 0.278 22.457602
-14.375 17.165001 0.27700001 22.390949
-14.392 17.075001 0.27700001 22.332981
-14.404 16.981001 0.27700001 22.268955
-14.44 16.808001 0.27700001 22.160757
-14.425 16.737 0.27599999 22.097149
-14.441 16.649 0.27599999 22.04105
-14.462 16.566999 0.27599999 21.992979
-14.493 16.393999 0.27599999 21.883474
-14.5 16.299 0.27599999 21.817047
-14.51 16.207001 0.27500001 21.755058
-14.489 16.132 0.27500001 21.685205
-14.483 16.024 0.27500001 21.60096
-14.507 15.848 0.27500001 21.486919
-14.501 15.742 0.27399999 21.404779
-14.519 15.663 0.27399999 21.35898
-14.52 15.566 0.27399999 21.288631
-14.553 15.454 0.27399999 21.229485
-14.613 15.421 0.27399999 21.246695
-14.717 15.433 0.27399999 21.32704
-14.743 15.364 0.27399999 21.295155
-14.79 15.316 0.27399999 21.293169
-16.212999 16.688 0.28 23.268629
-15.068 15.361 0.27500001 21.519306
-15.089 15.286 0.27500001 21.480581
-14.953 15.053 0.27399999 21.219334
-14.988 15.031 0.17399999 21.227373
-14.925 14.837 0.273 21.046776
-17.469999 17.264 0.28400001 24.562719
-17.690001 17.316999 0.285 24.756733
-15.181 14.763 0.27399999 21.177441
-15.336 14.857 0.17299999 21.353064
-14.811 14.171 0.175 20.499111
-14.979 14.241 0.17399999 20.668982
-14.852 14.076 0.175 20.463293
-4.526 4.256 0.075000003 6.2131987
-4.6139998 4.316 0.039999999 6.3181047
0 0 0 0
-14.912 13.695 0.175 20.247255
-14.93 13.625 0.175 20.213266
-14.954 13.605 0.175 20.217537
-14.981 13.458 0.175 20.138987
-14.984 13.377 0.175 20.087185
-14.995 13.302 0.175 20.045544
-15.014 13.235 0.175 20.015396
-15.029 13.164 0.176 19.979807
-15.03 13.04 0.176 19.899082
-15.015 12.945 0.176 19.825596
-15.008 12.857 0.176 19.762934
-15.03 12.795 0.176 19.739399
-15.037 12.719 0.176 19.695566
-15.044 12.645 0.176 19.653217
-15.041 12.521 0.176 19.57136
-15.044 12.445 0.176 19.525135
-15.048 12.368 0.176 19.479239
-15.084 12.318 0.176 19.475399
-15.104 12.256 0.176 19.451769
-15.167 12.228 0.176 19.483143
-15.268 12.192 0.176 19.539387
-15.347 12.176 0.176 19.591232
-16.337 12.875 0.17399999 20.801285
-16.539 12.951 0.17399999 21.007074
-16.639 12.911 0.273 21.062401
-16.926001 13.04 0.17299999 21.367289
-17.077999 13.072 0.17299999 21.507328
-15.344 11.671 0.177 19.279055
-15.377 11.621 0.177 19.275143
-17.382999 13.015 0.27500001 21.717148
-17.509001 13.023 0.27599999 21.82292
-17.482 12.875 0.27500001 21.713165
-17.482 12.791 0.27500001 21.663464
-17.635 12.85 0.17299999 21.820763
-15.234 10.959 0.177 18.767147
-15.221 10.878 0.177 18.709383
-15.235 10.851 0.177 18.705099
-15.228 10.775 0.178 18.655409
-15.269 10.66 0.178 18.622826
-15.281 10.598 0.178 18.597265
-15.285 10.529 0.178 18.561325
-15.305 10.472 0.178 18.545551
-15.293 10.429 0.178 18.511391
-15.347 10.325 0.178 18.497776
-15.352 10.259 0.178 18.465176
-15.358 10.193 0.178 18.433586
-15.38 10.138 0.178 18.421593
-15.375 10.032 0.178 18.359285
-15.388 9.9709997 0.178 18.336931
-15.391 9.9049997 0.178 18.303648
-15.402 9.8430004 0.178 18.27944
-15.416 9.7840004 0.178 18.259556
-15.421 9.7200003 0.178 18.229572
-15.429 9.6569996 0.178 18.202839
-15.419 9.5500002 0.178 18.137798
-15.437 9.4940004 0.178 18.123705
-15.47 9.448 0.178 18.127804
-15.556 9.4329996 0.178 18.193468
-15.687 9.4449997 0.178 18.31179
-15.738 9.375 0.178 18.319578
-15.755 9.3179998 0.178 18.305105
-15.76 9.2550001 0.178 18.277428
-15.761 9.1890001 0.178 18.244959
-15.776 9.132 0.178 18.229298
-15.762 9.0570002 0.178 18.179703
0 0 0 0
-15.818 8.9250002 0.178 18.163052
-16.011999 8.9680004 0.178 18.353224
-17.566 9.7629995 0.175 20.097542
-15.822 8.6669998 0.17900001 18.041191
-15.827 8.6379995 0.17900001 18.031666
-15.831 8.5749998 0.17900001 18.005089
-15.819 8.5050001 0.17900001 17.961288
-15.844 8.4540005 0.17900001 17.959246
-15.592 8.1949997 0.17900001 17.615349
-15.57 8.1520004 0.17900001 17.575893
-15.577 8.0939999 0.17900001 17.555279
-15.583 8.0349998 0.17900001 17.533487
-15.612 7.9879999 0.17900001 17.537809
-15.63 7.8730001 0.17900001 17.501802
-15.629 7.8119998 0.17900001 17.473553
-15.627 7.7800002 0.17900001 17.457479
-15.635 7.723 0.17900001 17.439323
-15.656 7.6110001 0.17900001 17.408897
-15.669 7.5570002 0.18000001 17.397074
-15.679 7.5009999 0.18000001 17.381842
-15.686 7.4439998 0.18000001 17.363646
-15.681 7.4109998 0.18000001 17.345001
-15.662 7.283 0.18000001 17.27347
-15.672 7.2270002 0.18000001 17.259012
-15.68 7.1719999 0.18000001 17.24333
-15.683 7.1129999 0.18000001 17.221603
-15.687 7.0560002 0.18000001 17.201788
-15.683 6.9660001 0.18000001 17.161411
-15.694 6.9109998 0.18000001 17.149227
-15.688 6.8499999 0.18000001 17.119236
-15.689 6.7919998 0.18000001 17.097029
-15.735 6.7529998 0.18000001 17.123833
-15.756 6.7030001 0.18000001 17.123497
-15.907 6.6789999 0.18000001 17.253233
-15.919 6.625 0.18000001 17.243479
-20.105 8.2589998 0.27500001 21.737011
-20.118 8.1899996 0.27500001 21.722929
-20.138 8.125 0.27500001 21.717051
-20.041 8.0489998 0.27500001 21.598698
-20.212999 7.9990001 0.17299999 21.73889
-20.077 7.8439999 0.27500001 21.556667
-20.115 7.7859998 0.27500001 21.57106
-16.172001 6.23 0.18000001 17.331442
-20.292999 7.6729999 0.27500001 21.69692
-20.483 7.6989999 0.17299999 21.88282
-16.326 6.0830002 0.17900001 17.423353
-16.336 6.0289998 0.17900001 17.413954
-16.351 5.9759998 0.17900001 17.409761
-16.372999 5.9260001 0.17900001 17.413345
-16.368999 5.8369999 0.18000001 17.379503
-16.379999 5.783 0.18000001 17.371813
-16.146 5.6440001 0.18000001 17.104982
-16.063999 5.559 0.18000001 16.999617
-15.901 5.3909998 0.18000001 16.790981
-15.874 5.3540001 0.18099999 16.753565
-15.891 5.3049998 0.18099999 16.754095
-15.886 5.2480001 0.18099999 16.731386
-15.901 5.197 0.18099999 16.729715
-15.924 5.0939999 0.18099999 16.71991
-15.928 5.04 0.18099999 16.707352
-15.938 5.0159998 0.18099999 16.709663
-15.931 4.9590001 0.18099999 16.685959
-15.952 4.8559999 0.18099999 16.675724
-15.95 4.8000002 0.18099999 16.657589
-15.999 4.7610002 0.18099999 16.693348
-16.004999 4.7069998 0.18099999 16.683783
-15.991 4.6760001 0.18099999 16.661627
-16.025999 4.5770001 0.18099999 16.667765
-16.028 4.5240002 0.18099999 16.655214
-16.073 4.4819999 0.18099999 16.687193
-16.084 4.4299998 0.18099999 16.683907
-16.09 4.3779998 0.18099999 16.675962
-16.098 4.2989998 0.18099999 16.663126
-16.101999 4.2459998 0.18099999 16.653399
-16.114 4.1939998 0.18099999 16.651829
-16.117001 4.1409998 0.18099999 16.641466
-16.114 4.0869999 0.18099999 16.625202
-16.127001 4.0359998 0.18099999 16.625349
-16.142 3.9590001 0.18099999 16.621391
-16.139 3.905 0.18099999 16.605696
-16.159 3.8559999 0.18099999 16.613693
-16.153 3.8010001 0.18099999 16.595173
-16.160999 3.7490001 0.18099999 16.591131
-16.167 3.697 0.18099999 16.58531
-16.165001 3.6170001 0.18099999 16.56571
-16.145 3.559 0.18099999 16.533611
-16.129 3.5020001 0.18099999 16.505798
-16.142 3.4519999 0.18099999 16.507975
-16.152 3.401 0.18099999 16.507172
-16.393999 3.3710001 0.18099999 16.73797
-16.461 3.3310001 0.18000001 16.79561
-16.579 3.3010001 0.18000001 16.905392
-20.752001 4.0300002 0.273 21.141451
-20.756001 3.9630001 0.273 21.132711
-20.768999 3.898 0.273 21.133392
-20.787001 3.8 0.273 21.133242
-20.791 3.733 0.273 21.125235
-20.802 3.668 0.273 21.124676
-20.808001 3.602 0.273 21.119228
-20.837 3.539 0.273 21.137161
-16.566 2.76 0.18000001 16.795307
-16.545 2.7030001 0.18000001 16.76531
-16.546 2.6500001 0.18099999 16.757845
-16.568001 2.5469999 0.18000001 16.763599
-16.563999 2.493 0.18099999 16.751534
-20.844 3.0699999 0.273 21.070637
-16.681999 2.431 0.18000001 16.859159
-16.664 2.3210001 0.18000001 16.825823
-16.681 2.27 0.18000001 16.835709
-20.865 2.806 0.273 21.054604
-20.903999 2.7449999 0.273 21.085226
-20.922001 2.6470001 0.273 21.090549
-20.909 2.5780001 0.273 21.069099
-20.919001 2.513 0.273 21.071171
-16.658001 1.921 0.18000001 16.769365
-16.646 1.867 0.18099999 16.751352
-16.642 1.814 0.18099999 16.74155
-16.664 1.763 0.18099999 16.757977
-20.981001 2.1530001 0.273 21.092945
-21.051001 2.0940001 0.273 21.156652
-21.004 2.0220001 0.273 21.102867
-17.028999 1.558 0.18000001 17.10107
-17.15 1.515 0.18000001 17.217728
-16.993 1.447 0.18000001 17.055447
-16.818001 1.353 0.18000001 16.873297
-16.788 1.298 0.18000001 16.839067
-16.893999 1.252 0.18000001 16.941284
-17.032 1.2079999 0.18000001 17.075733
-16.74 1.135 0.18000001 16.7794
-16.454 1.038 0.18099999 16.487703
-16.431 0.98500001 0.18099999 16.461493
-16.434 0.93400002 0.18099999 16.461515
-16.443001 0.88200003 0.18099999 16.467634
-16.445999 0.83099997 0.18099999 16.467976
-16.469 0.75400001 0.18099999 16.487246
-16.48 0.70300001 0.18099999 16.495981
-16.454 0.64999998 0.18099999 16.467829
-16.469999 0.59899998 0.18099999 16.481882
-16.497 0.49599999 0.18099999 16.505447
-16.511 0.44400001 0.18099999 16.51796
-16.513 0.41800001 0.18099999 16.519281
-16.52 0.36700001 0.18099999 16.525068
-16.51 0.31400001 0.18099999 16.513979
-16.509001 0.211 0.18099999 16.511343
-16.521999 0.15899999 0.18099999 16.523756
-16.524 0.107 0.18099999 16.525337
-16.691999 0.082000002 0.18099999 16.693182
-16.979 -0.0020000001 0.25999999 16.980989
-17.039 -0.056000002 0.26100001 17.04109
-16.990999 -0.109 0.25999999 16.993338
-16.926001 -0.162 0.25999999 16.928772
-17 -0.21600001 0.25999999 17.003361
-17.025 -0.296 0.25999999 17.029558
-16.974001 -0.34900001 0.25999999 16.979578
-16.983999 -0.40200001 0.25999999 16.990746
-17.021 -0.45699999 0.25999999 17.029119
-16.747999 -0.55500001 0.25999999 16.759209
-16.757 -0.58200002 0.25999999 16.769119
-16.750999 -0.634 0.25999999 16.765009
-16.783001 -0.68800002 0.25999999 16.79911
-16.806999 -0.74199998 0.25999999 16.825378
-17.030001 -0.80500001 0.26100001 17.051014
-17.398001 -0.90399998 0.26199999 17.423441
-21.511999 -1.23 0.42500001 21.551327
-17.679001 -1.03 0.26300001 17.710934
-17.782 -1.092 0.26300001 17.81744
0 0 0 0
-17.778999 -1.232 0.26300001 17.823574
0 0 0 0
0 0 0 0
-17.742001 -1.397 0.26300001 17.798859
0 0 0 0
-17.502001 -1.517 0.26199999 17.569574
-17.511 -1.573 0.26199999 17.58346
-17.452 -1.623 0.26199999 17.529263
-17.74 -1.762 0.26300001 17.829229
-17.757999 -1.8200001 0.26300001 17.852959
-17.853001 -1.858 0.26300001 17.951351
