# .PCD v0.7 - Point Cloud Data file format
VERSION 0.7
FIELDS x y z intensity
SIZE 4 4 4 4
TYPE F F F F
COUNT 1 1 1 1
WIDTH 1480
HEIGHT 1
VIEWPOINT 0 0 0 1 0 0 0
POINTS 1480
DATA ascii
0.602 4.6279998 -1.045 4.7825527
0.58700001 4.631 -1.046 4.7838106
0.574 4.645 -1.049 4.7964468
0.55299997 4.651 -1.05 4.8000116
0.54000002 4.6680002 -1.054 4.8158841
0.52200001 4.6430001 -1.0470001 4.788125
0.509 4.6539998 -1.049 4.7978325
0.49399999 4.6560001 -1.049 4.7982054
0.47999999 4.6630001 -1.051 4.8040161
0.45899999 4.6729999 -1.053 4.8121114
0.442 4.6490002 -1.046 4.7856746
0.43000001 4.6859999 -1.0549999 4.8225017
0.41600001 4.6950002 -1.057 4.8304586
0.40000001 4.6799998 -1.053 4.8136482
0.37799999 4.6880002 -1.0549999 4.8200889
0.36300001 4.6830001 -1.053 4.8136334
0.35100001 4.717 -1.061 4.847578
0.33399999 4.6950002 -1.056 4.8238692
0.32100001 4.71 -1.059 4.8382459
0.30000001 4.7329998 -1.064 4.8603892
0.28299999 4.7030001 -1.057 4.8286176
0.26899999 4.717 -1.0599999 4.8421121
0.25400001 4.7140002 -1.059 4.8381605
0.22499999 4.7270002 -1.062 4.8500514
0.20999999 4.7340002 -1.063 4.856421
0.20200001 4.724 -1.061 4.8458953
0.18700001 4.7150002 -1.059 4.8360806
0.17299999 4.7220001 -1.0599999 4.8426042
0.14300001 4.7399998 -1.064 4.8600559
0.12899999 4.744 -1.0650001 4.8637848
0.121 4.7290001 -1.061 4.8480721
0.106 4.7350001 -1.063 4.854012
0.075999998 4.7069998 -1.056 4.8245993
0.061000001 4.744 -1.0650001 4.8624563
0.046 4.7340002 -1.062 4.8518777
0.032000002 4.7399998 -1.064 4.858057
0.024 4.744 -1.0650001 4.862133
-0.0060000001 4.7399998 -1.064 4.8579555
-0.021 4.7519999 -1.067 4.8703628
-0.035 4.7480001 -1.066 4.8663216
-0.050000001 4.7459998 -1.0650001 4.8642821
-0.064999998 4.7459998 -1.0650001 4.8644595
-0.086999997 4.73 -1.061 4.8483181
-0.103 4.757 -1.068 4.876503
-0.118 4.7579999 -1.069 4.8780375
-0.132 4.7399998 -1.064 4.8597445
-0.148 4.7529998 -1.068 4.8737597
-0.17 4.7490001 -1.067 4.8703585
-0.185 4.7600002 -1.0700001 4.882287
-0.2 4.7550001 -1.069 4.8777852
-0.215 4.7620001 -1.071 4.8856845
-0.23100001 4.7659998 -1.072 4.8905315
-0.245 4.7550001 -1.069 4.879837
-0.26699999 4.7480001 -1.068 4.8739529
-0.28099999 4.7399998 -1.066 4.8665094
-0.29699999 4.7459998 -1.068 4.8737407
-0.31299999 4.7610002 -1.072 4.8902221
-0.32699999 4.7540002 -1.0700001 4.8838863
-0.35100001 4.7659998 -1.074 4.8981051
-0.36500001 4.75 -1.0700001 4.8826861
-0.37900001 4.7410002 -1.068 4.8745613
0 0 0 0
-0.41100001 4.763 -1.074 4.8998537
-0.426 4.7680001 -1.076 4.9064322
-0.44800001 4.7540002 -1.073 4.8941345
-0.465 4.7719998 -1.077 4.9140754
-0.479 4.7649999 -1.076 4.9084048
-0.50800002 4.7540002 -1.074 4.9002099
-0.52700001 4.783 -1.082 4.9320931
-0.53399998 4.7800002 -1.081 4.929718
-0.54799998 4.7709999 -1.079 4.9220915
0 0 0 0
-0.57800001 4.7670002 -1.079 4.9216475
-0.60600001 4.75 -1.076 4.9079027
-0.62199998 4.756 -1.0779999 4.9161472
0 0 0 0
-0.66000003 4.7589998 -1.08 4.924437
-0.67400002 4.7490001 -1.0779999 4.9162345
0 0 0 0
-0.704 4.743 -1.077 4.9144273
-0.708 4.7220001 -1.073 4.8938613
-0.72000003 4.6069999 -1.044 4.7783661
-0.73000002 4.5780001 -1.038 4.7506242
-0.74400002 4.573 -1.0369999 4.7477608
-0.75700003 4.5650001 -1.036 4.7418952
-0.77200001 4.5650001 -1.036 4.7443128
-0.79299998 4.559 -1.036 4.7420063
-0.81 4.5679998 -1.039 4.7541819
-0.82700002 4.579 -1.0420001 4.7683263
-0.838 4.5630002 -1.039 4.7542334
-0.85399997 4.566 -1.04 4.7601757
-0.87099999 4.579 -1.044 4.7765903
-0.88999999 4.5630002 -1.041 4.764111
-0.91000003 4.585 -1.0470001 4.7902541
-0.92299998 4.5760002 -1.046 4.7839127
-0.93699998 4.5700002 -1.045 4.7806797
-0.95499998 4.5840001 -1.049 4.7984877
-0.97600001 4.5770001 -1.049 4.7960305
-0.98900002 4.5679998 -1.0470001 4.7896714
-1.006 4.5770001 -1.05 4.8024435
-1.018 4.5640001 -1.048 4.7921524
-1.0369999 4.5799999 -1.053 4.8125434
-1.048 4.5650001 -1.05 4.8000031
-1.0700001 4.5619998 -1.05 4.8020039
-1.0880001 4.5739999 -1.054 4.8183126
-1.101 4.5650001 -1.053 4.8125081
-1.118 4.5689998 -1.0549999 4.8206544
-1.132 4.5650001 -1.0549999 4.8201323
-1.159 4.5819998 -1.0599999 4.8437181
0 0 0 0
0 0 0 0
0 0 0 0
0 0 0 0
0 0 0 0
0 0 0 0
0 0 0 0
0 0 0 0
0 0 0 0
0 0 0 0
0 0 0 0
0 0 0 0
0 0 0 0
0 0 0 0
0 0 0 0
0 0 0 0
0 0 0 0
0 0 0 0
0 0 0 0
0 0 0 0
0 0 0 0
0 0 0 0
0 0 0 0
0 0 0 0
0 0 0 0
0 0 0 0
0 0 0 0
0 0 0 0
0 0 0 0
0 0 0 0
0 0 0 0
0 0 0 0
0 0 0 0
0 0 0 0
0 0 0 0
0 0 0 0
0 0 0 0
0 0 0 0
0 0 0 0
0 0 0 0
0 0 0 0
0 0 0 0
0 0 0 0
0 0 0 0
0 0 0 0
0 0 0 0
0 0 0 0
0 0 0 0
0 0 0 0
0 0 0 0
0 0 0 0
0 0 0 0
0 0 0 0
0 0 0 0
0 0 0 0
0 0 0 0
0 0 0 0
0 0 0 0
0 0 0 0
0 0 0 0
0 0 0 0
0 0 0 0
0 0 0 0
0 0 0 0
0 0 0 0
0 0 0 0
0 0 0 0
0 0 0 0
0 0 0 0
0 0 0 0
0 0 0 0
0 0 0 0
0 0 0 0
0 0 0 0
0 0 0 0
0 0 0 0
0 0 0 0
0 0 0 0
0 0 0 0
0 0 0 0
0 0 0 0
0 0 0 0
0 0 0 0
0 0 0 0
-2.825 4.6739998 -1.187 5.5889058
0 0 0 0
-2.8759999 4.691 -1.197 5.6311336
0 0 0 0
0 0 0 0
-2.9400001 4.6630001 -1.199 5.641345
-2.9489999 4.6609998 -1.2 5.6446009
-3.003 4.6820002 -1.211 5.6925964
0 0 0 0
-3.0469999 4.6859999 -1.2180001 5.7206926
-3.056 4.6669998 -1.215 5.7093124
-3.075 4.664 -1.217 5.717483
-3.1229999 4.6900001 -1.229 5.7671199
0 0 0 0
-3.1500001 4.6669998 -1.228 5.7629309
0 0 0 0
-3.1900001 4.6609998 -1.232 5.7809033
-3.2049999 4.6529999 -1.232 5.7827549
-3.2260001 4.6360002 -1.232 5.7807784
-3.267 4.664 -1.243 5.8284845
-3.2750001 4.6440001 -1.24 5.8163533
-3.296 4.6440001 -1.243 5.8288422
-3.3 4.6170001 -1.238 5.8085566
-3.329 4.6129999 -1.242 5.8227634
-3.3789999 4.651 -1.256 5.8844695
-3.3740001 4.6139998 -1.248 5.8506727
-3.401 4.6209998 -1.253 5.8728571
-3.457 4.6659999 -1.27 5.9443507
-3.4779999 4.6630001 -1.272 5.9546652
-3.51 4.6609998 -1.277 5.9729176
-3.5409999 4.6719999 -1.283 6.001029
-3.5380001 4.6370001 -1.276 5.9705439
-3.5739999 4.6539998 -1.284 6.0068164
-3.5739999 4.6240001 -1.279 5.982532
-3.638 4.6609998 -1.295 6.0528493
-3.658 4.6570001 -1.298 6.0624595
-3.6730001 4.6459999 -1.298 6.0630889
-3.7 4.6500001 -1.302 6.083396
-3.7090001 4.6020002 -1.295 6.0507946
-3.78 4.6750002 -1.319 6.1549807
-3.7969999 4.6659999 -1.3200001 6.1588283
-3.8150001 4.6589999 -1.321 6.1648641
-3.865 4.6599998 -1.329 6.1983919
-3.8889999 4.658 -1.3329999 6.2127428
-3.918 4.664 -1.3380001 6.236495
-3.9330001 4.6669998 -1.341 6.2488127
-3.9849999 4.6690001 -1.349 6.2848697
-4.0029998 4.6609998 -1.351 6.2907968
-4.0229998 4.6539998 -1.353 6.2987971
-4.0689998 4.678 -1.364 6.3483024
-4.0780001 4.658 -1.362 6.3389349
-4.1440001 4.6900001 -1.378 6.4084101
-4.1550002 4.6729999 -1.377 6.4028964
-4.184 4.6760001 -1.382 6.4250102
-4.2140002 4.6799998 -1.388 6.4487782
-4.2319999 4.6690001 -1.388 6.4525909
-4.2839999 4.6830001 -1.399 6.4992576
-4.302 4.6729999 -1.401 6.5043783
-4.3330002 4.677 -1.406 6.5288634
-4.369 4.6859999 -1.414 6.560957
-4.382 4.671 -1.413 6.5587144
-4.4109998 4.6729999 -1.418 6.5806208
-4.4530001 4.6729999 -1.425 6.6103525
-4.4809999 4.6729999 -1.4299999 6.6303234
-4.513 4.677 -1.436 6.6560946
-4.5339999 4.6690001 -1.438 6.6651754
-4.5630002 4.6700001 -1.443 6.6867123
-4.599 4.678 -1.451 6.7186222
-4.645 4.6799998 -1.4579999 6.753087
-4.6849999 4.691 -1.467 6.7901983
-4.7080002 4.6849999 -1.47 6.8026018
-4.7389998 4.6869998 -1.476 6.8267608
-4.7719998 4.6890001 -1.482 6.8523741
-4.8140001 4.6859999 -1.488 6.8809404
-4.855 4.697 -1.497 6.9190927
-4.8769999 4.6880002 -1.499 6.9288869
-4.908 4.6890001 -1.505 6.9527125
-4.9549999 4.6900001 -1.513 6.9883685
-4.9770002 4.6810002 -1.516 6.9986105
-5.0149999 4.6869998 -1.523 7.0311961
-5.0599999 4.6999998 -1.534 7.0743728
-5.1170001 4.6929998 -1.5420001 7.1123629
-5.1469998 4.6919999 -1.548 7.1346183
-5.1810002 4.7069998 -1.556 7.1707563
-5.1550002 4.6539998 -1.543 7.1143932
-5.2129998 4.677 -1.557 7.1745343
-5.3080001 4.7030001 -1.5779999 7.265202
-5.335 4.698 -1.582 7.2825923
-5.381 4.7080002 -1.592 7.3249502
-5.4089999 4.717 -1.598 7.3526168
-5.4749999 4.7150002 -1.61 7.4026313
-5.5009999 4.7080002 -1.614 7.4183059
-5.54 4.711 -1.6210001 7.4506884
-5.5640001 4.7010002 -1.624 7.4629002
-5.6269999 4.71 -1.637 7.5184436
-5.6669998 4.7129998 -1.645 7.5520382
-5.7049999 4.7140002 -1.652 7.5827384
-5.7389998 4.7119999 -1.658 7.608418
-5.79 4.724 -1.669 7.6567512
-5.7940001 4.697 -1.666 7.6424999
-5.8390002 4.6880002 -1.673 7.6726918
-5.8590002 4.6750002 -1.675 7.6804385
-5.8790002 4.6599998 -1.676 7.686821
-5.8979998 4.645 -1.678 7.6927309
-5.9190001 4.631 -1.6799999 7.7008519
-5.9390001 4.6170001 -1.681 7.7080588
-5.9640002 4.592 -1.682 7.7126446
-5.9850001 4.5780001 -1.684 7.7210212
-6.013 4.5700002 -1.688 7.7388897
-6.033 4.5549998 -1.6900001 7.7460451
-6.04 4.5310001 -1.688 7.7369828
-6.0739999 4.5110002 -1.692 7.7527714
-6.0809999 4.4879999 -1.6900001 7.7444692
-6.0939999 4.467 -1.689 7.7423277
-6.1209998 4.4569998 -1.693 7.7587204
-6.1469998 4.447 -1.697 7.7743955
-6.1760001 4.4239998 -1.699 7.784687
-6.1799998 4.3979998 -1.696 7.7724652
-6.197 4.381 -1.697 7.7766175
-6.2199998 4.368 -1.7 7.7883129
-6.2449999 4.3260002 -1.699 7.784658
-6.2610002 4.323 -1.702 7.7964897
-6.2779999 4.3060002 -1.7029999 7.8009696
-6.2909999 4.2859998 -1.7029999 7.8004284
-6.329 4.283 -1.71 7.8309917
-6.3569999 4.244 -1.71 7.8324375
-6.3769999 4.2280002 -1.712 7.8404756
-6.3769999 4.2140002 -1.71 7.8324981
-6.4000001 4.1999998 -1.7130001 7.8443842
-6.4050002 4.1750002 -1.711 7.8346777
-6.467 4.158 -1.721 7.8786354
-6.493 4.1459999 -1.725 7.8945546
-6.5009999 4.1220002 -1.723 7.8881316
-6.48 4.0939999 -1.715 7.8544545
-6.5320001 4.0700002 -1.723 7.8867393
-6.5359998 4.0440001 -1.721 7.8762345
-6.5749998 4.04 -1.728 7.9081101
-6.5799999 4.0139999 -1.726 7.8985863
-6.592 3.994 -1.726 7.8984542
-6.6339998 3.977 -1.732 7.9263048
-6.6490002 3.957 -1.733 7.9290819
-6.6760001 3.9449999 -1.737 7.9466453
-6.6820002 3.9200001 -1.735 7.9388762
-6.711 3.9089999 -1.74 7.9589825
-6.7420001 3.885 -1.743 7.9740729
-6.7729998 3.8740001 -1.749 7.9962745
-6.7870002 3.8540001 -1.749 7.9984803
-6.7940001 3.8299999 -1.748 7.9926744
-6.8299999 3.822 -1.7539999 8.020792
-6.848 3.79 -1.7539999 8.0209551
-6.8600001 3.7679999 -1.7539999 8.0208445
-6.8759999 3.7490001 -1.756 8.0260763
-6.8899999 3.7290001 -1.756 8.0287657
-6.9029999 3.7079999 -1.756 8.0302057
-6.9460001 3.7030001 -1.765 8.0668678
-6.9679999 3.6730001 -1.766 8.0723429
-7.0110002 3.6670001 -1.775 8.1087389
-7.027 3.648 -1.776 8.1142349
-7.0300002 3.6210001 -1.774 8.1042967
-7.092 3.625 -1.7869999 8.1627483
-7.0929999 3.5969999 -1.784 8.1505651
-7.125 3.572 -1.789 8.1685581
-7.1240001 3.543 -1.785 8.1541672
-7.1669998 3.5369999 -1.794 8.1911345
-7.1880002 3.5190001 -1.7970001 8.2024336
-7.2189999 3.4920001 -1.8 8.2187605
-7.2449999 3.477 -1.804 8.2361383
-7.244 3.448 -1.801 8.2223988
-7.2639999 3.4300001 -1.804 8.2331657
-7.2919998 3.415 -1.808 8.2525358
-7.3520002 3.3870001 -1.818 8.2963123
0 0 0 0
-7.3940001 3.365 -1.825 8.326169
0 0 0 0
0 0 0 0
-7.7010002 3.3870001 -1.826 8.6088009
-7.7399998 3.375 -1.8329999 8.6404924
-7.7319999 3.3429999 -1.8279999 8.6198063
-7.7639999 3.3280001 -1.834 8.6440058
-7.809 3.3180001 -1.842 8.6823139
-7.7979999 3.2839999 -1.837 8.6584082
-7.829 3.2539999 -1.841 8.6758881
-7.8429999 3.2309999 -1.842 8.6801481
-7.8730001 3.214 -1.847 8.7020302
-7.901 3.197 -1.851 8.7219725
-7.9130001 3.1730001 -1.852 8.7242994
-7.9050002 3.141 -1.847 8.7043848
-7.9489999 3.115 -1.854 8.7365408
-7.973 3.095 -1.858 8.7521381
-8.0030003 3.0780001 -1.863 8.7745581
-7.994 3.046 -1.859 8.7543154
-8.0349998 3.0320001 -1.8660001 8.788413
-8.0600004 2.9990001 -1.869 8.8006124
-8.073 2.9749999 -1.87 8.8045931
-8.1239996 2.964 -1.88 8.8498058
-8.1190004 2.934 -1.877 8.8345718
-8.1280003 2.908 -1.877 8.8342505
-8.1599998 2.8759999 -1.881 8.8541031
-8.1639996 2.849 -1.88 8.8488464
-8.191 2.829 -1.8839999 8.8682117
-8.1920004 2.8010001 -1.882 8.8598194
-8.2089996 2.7780001 -1.8839999 8.8687325
-8.2390003 2.73 -1.887 8.8822746
-8.25 2.72 -1.8890001 8.8898382
-8.276 2.6989999 -1.893 8.9084358
-8.2790003 2.6719999 -1.892 8.9028702
-8.3120003 2.625 -1.896 8.9204702
-8.3219995 2.599 -1.896 8.9221802
-8.3389997 2.5899999 -1.9 8.9362755
-8.3579998 2.5669999 -1.902 8.9478073
-8.3699999 2.5420001 -1.903 8.9520988
-8.401 2.494 -1.9069999 8.9684725
-8.3990002 2.4649999 -1.905 8.9581509
-8.4239998 2.4430001 -1.909 8.9764299
-8.467 2.441 -1.918 9.0181646
-8.5159998 2.3970001 -1.926 9.0541344
-8.5670004 2.382 -1.937 9.1005163
-8.5690002 2.3540001 -1.9349999 9.0946856
-8.5609999 2.323 -1.932 9.0785284
-8.5380001 2.2880001 -1.924 9.0462236
-8.5150003 2.2390001 -1.916 9.0105171
-8.5419998 2.2179999 -1.921 9.0319166
-8.5249996 2.1849999 -1.915 9.0065012
-8.5319996 2.158 -1.915 9.0066195
-8.5459995 2.1329999 -1.9170001 9.0143604
-8.5410004 2.089 -1.914 8.9986668
-8.5430002 2.0610001 -1.913 8.9938946
-8.5419998 2.033 -1.911 8.9861431
-8.5410004 2.0039999 -1.909 8.9782505
-8.5419998 1.976 -1.908 8.9727812
-8.5249996 1.944 -1.902 8.9483166
-8.5360003 1.904 -1.903 8.9504147
-8.5290003 1.874 -1.9 8.9367628
-8.54 1.849 -1.901 8.9422703
-8.5550003 1.824 -1.903 8.9518938
-8.5419998 1.793 -1.899 8.9323463
-8.5559998 1.7539999 -1.9 8.9382124
-8.5480003 1.724 -1.897 8.9240742
-8.5570002 1.698 -1.898 8.9279251
-8.5530005 1.67 -1.896 8.9183817
-8.5530005 1.642 -1.8940001 8.912756
-8.5480003 1.613 -1.892 8.9022322
-8.559 1.573 -1.893 8.9058552
-8.566 1.5470001 -1.893 8.9080315
-8.5649996 1.5190001 -1.892 8.9020357
-8.5679998 1.492 -1.891 8.9001446
-8.5649996 1.4630001 -1.89 8.8922253
-8.5679998 1.4220001 -1.8890001 8.8882523
-8.5760002 1.396 -1.89 8.8920584
-8.573 1.368 -1.888 8.8843851
-8.5769997 1.341 -1.888 8.8841295
-8.5699997 1.285 -1.8839999 8.8682337
-8.5819998 1.273 -1.887 8.8787394
-8.5780001 1.245 -1.885 8.8704758
-8.5860004 1.2180001 -1.886 8.8746786
-8.5780001 1.1900001 -1.883 8.8624983
-8.585 1.136 -1.883 8.8621902
-8.5869999 1.109 -1.882 8.8604946
-8.5749998 1.0930001 -1.8789999 8.8462372
-8.5649996 1.0650001 -1.876 8.8324862
-8.5710001 1.011 -1.876 8.8319616
-8.5670004 0.98299998 -1.874 8.8244915
-8.5699997 0.95599997 -1.874 8.8244381
-8.573 0.92900002 -1.874 8.8244686
-8.559 0.91399997 -1.8710001 8.8086615
-8.6400003 0.86799997 -1.888 8.8863707
-8.6459999 0.84100002 -1.8890001 8.8898211
-8.6549997 0.81400001 -1.891 8.8964882
-8.6569996 0.787 -1.891 8.8960047
-8.6630001 0.74699998 -1.891 8.8983965
-8.6610003 0.71899998 -1.89 8.8939295
-8.6479998 0.69099998 -1.887 8.8784094
-8.6520004 0.66399997 -1.887 8.8802462
-8.6479998 0.63599998 -1.886 8.8740854
-8.6479998 0.60900003 -1.885 8.8719788
-8.6590004 0.56800002 -1.887 8.8804102
-8.6700001 0.542 -1.8890001 8.8899374
-8.6660004 0.514 -1.888 8.88416
-8.6660004 0.48699999 -1.887 8.8824263
-8.665 0.46000001 -1.887 8.8800106
-8.6669998 0.43200001 -1.887 8.8805561
-8.6709995 0.39199999 -1.887 8.8826046
-8.6540003 0.36399999 -1.883 8.8639669
-8.6529999 0.336 -1.883 8.8618841
-8.6700001 0.31 -1.887 8.8783875
-8.6549997 0.28200001 -1.883 8.8619547
-8.6529999 0.241 -1.882 8.8585787
-8.6610003 0.214 -1.8839999 8.8661251
-8.6520004 0.18700001 -1.882 8.8562975
-8.6569996 0.16 -1.882 8.8606529
-8.651 0.132 -1.881 8.8541164
-8.6569996 0.105 -1.882 8.8598299
-8.6479998 0.064000003 -1.88 8.8502207
-8.6599998 0.037 -1.883 8.8624296
0 0 0 0
0 0 0 0
0 0 0 0
0 0 0 0
0 0 0 0
0 0 0 0
0 0 0 0
0 0 0 0
0 0 0 0
0 0 0 0
0 0 0 0
0 0 0 0
0 0 0 0
0 0 0 0
0 0 0 0
0 0 0 0
0 0 0 0
0 0 0 0
0 0 0 0
0 0 0 0
0 0 0 0
0 0 0 0
0 0 0 0
0 0 0 0
-9.1269999 -0.76999998 -1.918 9.3580847
-9.1429996 -0.815 -1.9220001 9.3783131
-9.1599998 -0.84500003 -1.927 9.3985605
-9.1549997 -0.87400001 -1.926 9.3961363
-9.1599998 -0.903 -1.928 9.4041576
-9.165 -0.93300003 -1.9299999 9.412365
-9.1800003 -0.963 -1.934 9.4308081
-9.1789999 -0.99199998 -1.934 9.4328394
-9.2010002 -1.039 -1.9400001 9.4605246
-9.2010002 -1.068 -1.941 9.4639578
-9.2080002 -1.098 -1.943 9.4746037
-9.2159996 -1.128 -1.946 9.4865141
-9.2220001 -1.158 -1.948 9.4963655
-9.2299995 -1.204 -1.951 9.5104637
-9.2259998 -1.233 -1.951 9.5102978
-9.2609997 -1.267 -1.96 9.5505495
-9.2650003 -1.2970001 -1.961 9.5586596
-9.2639999 -1.327 -1.962 9.5620117
-9.2989998 -1.3609999 -1.971 9.6025286
-9.3039999 -1.4069999 -1.974 9.6146107
-9.3149996 -1.438 -1.977 9.6304512
-9.3219995 -1.469 -1.98 9.6425123
-9.3149996 -1.498 -1.979 9.6400032
-9.3360004 -1.5319999 -1.985 9.6668587
-9.3280001 -1.576 -1.985 9.6662083
-9.3640003 -1.612 -1.994 9.7087116
-9.3369999 -1.638 -1.989 9.6860075
-9.3380003 -1.668 -1.99 9.6922951
-9.3500004 -1.7 -1.994 9.7102289
-9.3459997 -1.745 -1.995 9.7145643
-9.3690004 -1.78 -2.0020001 9.744463
-9.3540001 -1.807 -2 9.7346067
-9.3669996 -1.84 -2.0039999 9.7540913
-9.3780003 -1.904 -2.0090001 9.7779436
-9.3839998 -1.936 -2.0120001 9.7905922
-9.3999996 -1.954 -2.016 9.8103189
-9.401 -1.985 -2.0179999 9.8179092
-9.4090004 -2.0179999 -2.0209999 9.8329067
-9.4189997 -2.082 -2.026 9.856823
-9.4250002 -2.1140001 -2.029 9.869978
-9.4510002 -2.151 -2.0369999 9.9044218
-9.4189997 -2.1600001 -2.03 9.8744144
-9.132 -2.155 -1.967 9.5867901
-8.9689999 -2.1470001 -1.932 9.4225893
0 0 0 0
0 0 0 0
0 0 0 0
0 0 0 0
0 0 0 0
0 0 0 0
0 0 0 0
0 0 0 0
0 0 0 0
0 0 0 0
0 0 0 0
0 0 0 0
0 0 0 0
0 0 0 0
0 0 0 0
0 0 0 0
0 0 0 0
0 0 0 0
0 0 0 0
0 0 0 0
0 0 0 0
0 0 0 0
0 0 0 0
0 0 0 0
0 0 0 0
0 0 0 0
0 0 0 0
0 0 0 0
0 0 0 0
-8.6190004 -3.036 -1.913 9.3361683
0 0 0 0
0 0 0 0
0 0 0 0
0 0 0 0
0 0 0 0
-8.6099997 -3.2320001 -1.926 9.3961372
0 0 0 0
-8.6190004 -3.2969999 -1.933 9.4283543
0 0 0 0
0 0 0 0
0 0 0 0
0 0 0 0
0 0 0 0
-8.6079998 -3.527 -1.95 9.5047302
-8.6059999 -3.5580001 -1.952 9.5148773
-8.6129999 -3.592 -1.956 9.5347872
-8.6160002 -3.609 -1.9579999 9.544323
-8.6140003 -3.6400001 -1.96 9.5546951
-8.6160002 -3.7049999 -1.967 9.5828791
-8.6309996 -3.744 -1.973 9.6127214
-8.8409996 -3.8670001 -2.027 9.8603086
-8.8389997 -3.882 -2.0280001 9.8646145
-8.8120003 -3.937 -2.027 9.862051
-8.7910004 -3.961 -2.0250001 9.8525038
-8.7770004 -3.9879999 -2.0250001 9.850914
-8.7639999 -4.0149999 -2.0250001 9.8503065
-8.7530003 -4.0430002 -2.0250001 9.8519783
-8.7110004 -4.0739999 -2.02 9.8264647
-8.7049999 -4.105 -2.0209999 9.8342514
-8.6800003 -4.1259999 -2.0179999 9.8203163
-8.658 -4.1490002 -2.016 9.8101692
-8.6379995 -4.1729999 -2.0139999 9.8023033
-8.6199999 -4.198 -2.013 9.7969265
-8.5909996 -4.2340002 -2.0109999 9.7865295
-8.5710001 -4.257 -2.0090001 9.7785568
-8.5539999 -4.283 -2.0079999 9.7748175
-8.5419998 -4.3099999 -2.0090001 9.7763968
-8.5229998 -4.3340001 -2.007 9.7700119
-8.4870005 -4.3670001 -2.0039999 9.752737
-8.4729996 -4.3930001 -2.0039999 9.7522402
-8.4589996 -4.4200001 -2.0039999 9.752286
-8.4300003 -4.4380002 -2 9.7345133
-8.4239998 -4.4689999 -2.0020001 9.7439079
-8.3979998 -4.4889998 -1.999 9.730032
-8.3620005 -4.52 -1.995 9.7125416
-8.3369999 -4.5409999 -1.992 9.700222
-8.309 -4.5599999 -1.989 9.6844826
-8.2959995 -4.5869999 -1.989 9.6860876
-8.2679996 -4.605 -1.9859999 9.6700592
-8.2360001 -4.6389999 -1.983 9.6583805
-8.2279997 -4.6680002 -1.985 9.6659412
-8.2040005 -4.6880002 -1.982 9.6546001
-8.1800003 -4.7090001 -1.98 9.6440392
-8.1669998 -4.7360001 -1.98 9.6462421
-8.1230001 -4.7610002 -1.975 9.6203365
-8.1099997 -4.7880001 -1.975 9.6227684
-8.0880003 -4.809 -1.974 9.6145153
-8.0710001 -4.8340001 -1.973 9.6125612
-8.0419998 -4.8850002 -1.974 9.6142426
-8.0200005 -4.9070001 -1.972 9.6066561
-8.0190001 -4.9229999 -1.974 9.6144142
-7.9850001 -4.9369998 -1.969 9.5922441
-7.9699998 -4.9619999 -1.969 9.5926695
-7.9320002 -5.0079999 -1.967 9.5846634
-7.934 -5.0440001 -1.972 9.6062002
-7.9060001 -5.0440001 -1.967 9.5820599
-7.8899999 -5.0689998 -1.967 9.5820637
-7.8660002 -5.0890002 -1.964 9.5723133
-7.8340001 -5.138 -1.964 9.5722466
-7.8179998 -5.1630001 -1.964 9.5726166
-7.7979999 -5.1849999 -1.964 9.5681934
-7.7820001 -5.1919999 -1.961 9.558342
-7.7540002 -5.244 -1.9630001 9.5643835
-7.73 -5.263 -1.96 9.5547724
-7.7150002 -5.2880001 -1.961 9.5566568
-7.6950002 -5.3099999 -1.96 9.5525246
-7.6680002 -5.3449998 -1.96 9.5503321
0 0 0 0
-7.6199999 -5.3829999 -1.956 9.5324202
-7.598 -5.4039998 -1.954 9.526329
-7.5780001 -5.4250002 -1.954 9.5223331
-7.5500002 -5.441 -1.95 9.5083895
-7.5149999 -5.4699998 -1.948 9.4968843
-7.4899998 -5.4879999 -1.946 9.4871044
-7.4679999 -5.5079999 -1.944 9.4809399
-7.4419999 -5.5250001 -1.942 9.4699707
-7.4159999 -5.5419998 -1.9400001 9.4590921
-7.3709998 -5.5619998 -1.934 9.4343967
-7.3660002 -5.5949998 -1.938 9.4508104
0 0 0 0
-7.3189998 -5.6329999 -1.9349999 9.4362421
-7.316 -5.6669998 -1.939 9.4550762
-7.27 -5.6869998 -1.934 9.4305477
0 0 0 0
0 0 0 0
0 0 0 0
0 0 0 0
0 0 0 0
0 0 0 0
0 0 0 0
0 0 0 0
0 0 0 0
0 0 0 0
0 0 0 0
0 0 0 0
0 0 0 0
0 0 0 0
0 0 0 0
0 0 0 0
0 0 0 0
0 0 0 0
0 0 0 0
0 0 0 0
0 0 0 0
0 0 0 0
0 0 0 0
-6.197 -5.75 -1.835 8.6505804
-6.1659999 -5.757 -1.831 8.6322165
-6.145 -5.756 -1.827 8.6157122
-6.1030002 -5.7529998 -1.8200001 8.5823088
-6.0430002 -5.7680001 -1.812 8.5481586
-6.0009999 -5.7639999 -1.804 8.5141125
-5.9650002 -5.7649999 -1.799 8.4883957
-5.9310002 -5.7690001 -1.794 8.4662018
-5.8709998 -5.7639999 -1.783 8.4185171
-5.8499999 -5.7800002 -1.7819999 8.4146557
-5.8080001 -5.7750001 -1.774 8.3803682
-5.7740002 -5.776 -1.7690001 8.3564711
-5.7459998 -5.7849998 -1.766 8.3427515
-5.704 -5.7789998 -1.758 8.3080091
-5.6550002 -5.7839999 -1.751 8.276454
-5.6209998 -5.7839999 -1.745 8.2519894
-5.5890002 -5.7880001 -1.7410001 8.2321901
-5.559 -5.7930002 -1.737 8.21453
-5.5219998 -5.7909999 -1.73 8.1866388
-5.4790001 -5.7989998 -1.725 8.1623201
-5.4380002 -5.7919998 -1.717 8.1281729
-5.4159999 -5.8049998 -1.716 8.1225452
-5.3920002 -5.816 -1.714 8.1140194
-5.3530002 -5.8099999 -1.707 8.0823612
-5.3309999 -5.823 -1.706 8.0769625
-5.2670002 -5.8070002 -1.693 8.0205231
-5.243 -5.8179998 -1.691 8.0123444
-5.2160001 -5.8239999 -1.688 7.998436
-5.178 -5.8189998 -1.681 7.968576
-5.1469998 -5.8200002 -1.677 7.9483542
-5.099 -5.8210001 -1.669 7.9164009
-5.0700002 -5.8249998 -1.666 7.9000683
-5.0479999 -5.8369999 -1.664 7.8944139
-5.013 -5.8330002 -1.659 7.8680582
-4.9860001 -5.8390002 -1.655 7.8544989
-4.9349999 -5.8340001 -1.647 7.816802
-4.9050002 -5.836 -1.643 7.7985492
-4.8790002 -5.842 -1.64 7.7860909
-4.849 -5.842 -1.636 7.7664828
-4.7969999 -5.8540001 -1.63 7.7419262
-4.7779999 -5.8499999 -1.627 7.7265072
-4.7480001 -5.8499999 -1.622 7.7069378
-4.7210002 -5.8540001 -1.619 7.6927447
-4.6630001 -5.8579998 -1.6109999 7.6586585
-4.6409998 -5.868 -1.61 7.6527386
-4.6079998 -5.8639998 -1.604 7.6284318
-4.5869999 -5.8559999 -1.6 7.6087651
-4.5640001 -5.8639998 -1.598 7.6006708
-4.507 -5.8660002 -1.59 7.5664463
-4.4879999 -5.8800001 -1.59 7.5660191
-4.4499998 -5.868 -1.5829999 7.5327163
-4.434 -5.8649998 -1.58 7.5203042
-4.3850002 -5.8769999 -1.576 7.5000753
-4.3579998 -5.8790002 -1.572 7.4850512
-4.3390002 -5.8920002 -1.572 7.4842353
-4.3010001 -5.8790002 -1.564 7.450325
-4.2750001 -5.881 -1.561 7.4362965
-4.2360001 -5.8860002 -1.557 7.4170709
-4.2069998 -5.8850002 -1.553 7.398911
-4.1929998 -5.9039998 -1.554 7.4063067
-4.152 -5.8850002 -1.545 7.3660951
-4.1300001 -5.8940001 -1.544 7.3607116
-4.1160002 -5.9130001 -1.546 7.3685241
-4.0609999 -5.8920002 -1.535 7.3187165
-4.0469999 -5.9130001 -1.5369999 7.3283114
-4.0100002 -5.8979998 -1.529 7.2941308
-3.9860001 -5.9029999 -1.527 7.2845955
-3.97 -5.9180002 -1.528 7.288238
-3.921 -5.9039998 -1.5190001 7.2483664
-3.9030001 -5.9180002 -1.5190001 7.2500691
-3.868 -5.9039998 -1.512 7.2183638
-3.839 -5.902 -1.508 7.200388
-3.779 -5.848 -1.49 7.1203966
-3.7509999 -5.8449998 -1.4859999 7.1022687
-3.7349999 -5.881 -1.4910001 7.1245675
-3.7309999 -5.9159999 -1.497 7.1526513
-3.7090001 -5.9229999 -1.4960001 7.146791
-3.6919999 -5.9359999 -1.4960001 7.1487741
-3.6630001 -5.9310002 -1.492 7.1288428
-3.632 -5.9429998 -1.49 7.1225538
-3.6029999 -5.9380002 -1.4859999 7.1027918
-3.5799999 -5.9419999 -1.484 7.0940833
-3.566 -5.96 -1.4859999 7.1025453
-3.507 -5.947 -1.476 7.0600591
-3.5050001 -5.9650002 -1.479 7.0748634
-3.467 -5.9419999 -1.47 7.0347958
-3.457 -5.9679999 -1.474 7.0526977
-3.4590001 -6.0159998 -1.484 7.0964212
-3.4170001 -6.0289998 -1.482 7.0866814
-3.418 -6.053 -1.487 7.1086359
-3.3900001 -6.0479999 -1.483 7.0901117
-3.3829999 -6.0809999 -1.489 7.1162043
-3.3310001 -6.0770001 -1.482 7.0867352
-3.3080001 -6.0799999 -1.48 7.0781116
-3.3069999 -6.125 -1.489 7.1182156
-3.2880001 -6.1110001 -1.484 7.0963035
-3.2260001 -6.0869999 -1.473 7.0447407
-3.214 -6.1110001 -1.476 7.0606441
-3.3699999 -6.46 -1.5650001 7.452364
-3.382 -6.533 -1.581 7.5244651
-3.1559999 -6.1170001 -1.471 7.0385985
-3.096 -6.0949998 -1.461 6.9906192
0 0 0 0
-3.4679999 -6.9419999 -1.674 7.9385557
-3.461 -6.9819999 -1.682 7.9721994
-3 -6.0929999 -1.45 6.9445772
-2.9590001 -6.0819998 -1.444 6.9160352
-2.9419999 -6.0949998 -1.4450001 6.920434
-2.9230001 -6.1040001 -1.4450001 6.9203157
-2.9030001 -6.112 -1.444 6.9187493
-2.8740001 -6.0999999 -1.439 6.894969
-2.8329999 -6.0869999 -1.432 6.8649893
-2.813 -6.0939999 -1.432 6.8629751
-2.793 -6.1030002 -1.432 6.8628044
-2.7739999 -6.1110001 -1.432 6.8622169
-2.75 -6.1079998 -1.428 6.84904
-2.7219999 -6.0970001 -1.423 6.8269777
-2.6949999 -6.1149998 -1.425 6.8327789
0 0 0 0
0 0 0 0
0 0 0 0
0 0 0 0
-2.5699999 -6.0879998 -1.408 6.7565603
0 0 0 0
0 0 0 0
-3.2249999 -7.8979998 -1.853 8.7299843
-2.45 -6.0929999 -1.398 6.7142797
-2.4489999 -6.119 -1.404 6.7387667
-2.4170001 -6.0939999 -1.396 6.7028008
0 0 0 0
0 0 0 0
0 0 0 0
-2.309 -6.0999999 -1.388 6.6684351
-2.296 -6.0949998 -1.386 6.6589518
-2.276 -6.098 -1.385 6.6546226
-2.2079999 -6.0320001 -1.365 6.5668497
-2.1919999 -6.046 -1.367 6.5747752
-2.1659999 -6.0339999 -1.362 6.5540643
-2.154 -6.0310001 -1.36 6.5469294
-2.135 -6.0349998 -1.36 6.5443907
-2.1099999 -6.027 -1.3559999 6.52806
-2.073 -6.0419998 -1.357 6.5302787
-2.046 -6.0250001 -1.351 6.5047626
-2.027 -6.0310001 -1.351 6.504375
-2.0190001 -6.0380001 -1.352 6.5085878
-1.974 -6.0279999 -1.346 6.4842248
-1.956 -6.0380001 -1.347 6.4882808
-1.934 -6.033 -1.345 6.4766092
-1.9119999 -6.0320001 -1.3430001 6.4687262
-1.906 -6.046 -1.345 6.4804301
-1.86 -6.0300002 -1.339 6.4508462
-1.844 -6.0450001 -1.341 6.4607
-1.818 -6.0300002 -1.336 6.4382391
-1.798 -6.0300002 -1.335 6.4324126
-1.778 -6.0320001 -1.334 6.4285197
-1.753 -6.0539999 -1.337 6.4429412
-1.743 -6.0910001 -1.345 6.4766774
-1.7180001 -6.0739999 -1.339 6.452745
-1.698 -6.0760002 -1.3380001 6.4491262
-1.682 -6.0939999 -1.341 6.4625258
-1.655 -6.0710001 -1.335 6.4325962
-2.1459999 -8.052 -1.807 8.5267382
-2.138 -8.1260004 -1.823 8.5980377
0 0 0 0
0 0 0 0
-1.539 -6.0549998 -1.324 6.3862758
-1.513 -6.0700002 -1.326 6.3947124
-2.2119999 -8.9390001 -1.929 9.4084911
0 0 0 0
-1.457 -6.092 -1.3279999 6.403038
-1.434 -6.079 -1.324 6.3846354
-1.403 -6.0760002 -1.322 6.3744702
-1.38 -6.0640001 -1.317 6.3569636
-1.359 -6.0580001 -1.3150001 6.3462958
-1.344 -6.0799999 -1.319 6.364943
-1.322 -6.0710001 -1.316 6.3511086
0 0 0 0
-1.267 -6.046 -1.308 6.314291
-1.248 -6.052 -1.308 6.3162546
-1.232 -6.0679998 -1.311 6.329073
0 0 0 0
-1.7539999 -9.0080004 -1.9220001 9.3762827
0 0 0 0
-1.1440001 -6.0770001 -1.309 6.3207712
-1.801 -9.8120003 -2.0999999 10.194554
-1.72 -9.5430002 -2.0369999 9.908412
-1.693 -9.566 -2.0409999 9.9267454
0 0 0 0
-1.034 -6.0630002 -1.302 6.2868381
-1.632 -9.8450003 -2.1010001 10.19812
-1.598 -9.835 -2.0969999 10.182251
-1.566 -9.8280001 -2.0940001 10.169895
0 0 0 0
-0.92699999 -6.0700002 -1.299 6.2762752
-0.88300002 -6.0320001 -1.289 6.23107
-0.86900002 -6.0689998 -1.2970001 6.2665882
-1.395 -9.8500004 -2.0940001 10.166286
-1.3660001 -9.8719997 -2.0969999 10.184289
-1.33 -9.8389997 -2.089 10.145873
0 0 0 0
-0.76099998 -6.0619998 -1.2920001 6.2446961
-0.74000001 -6.0430002 -1.2869999 6.2226858
-1.299 -11.014 -2.348 11.336167
-1.325 -11.54 -2.4649999 11.874487
-1.353 -12.1 -2.5899999 12.44784
-1.3890001 -12.599 -2.701 12.95992
0 0 0 0
-0.616 -6.053 -1.286 6.2186866
-0.597 -6.0570002 -1.2869999 6.2209344
-1.232 -13.259 -2.8440001 13.616432
-1.1950001 -13.317 -2.8559999 13.672134
-1.1569999 -13.358 -2.8640001 13.710482
0 0 0 0
0 0 0 0
-0.46900001 -6.0170002 -1.275 6.1684585
-0.44 -6.0100002 -1.273 6.1590772
-0.421 -6.0089998 -1.272 6.1565661
-0.40099999 -5.9910002 -1.268 6.1368318
-0.382 -5.9860001 -1.266 6.1303244
-0.36399999 -5.9910002 -1.267 6.1343188
-0.33500001 -5.9850001 -1.266 6.1265984
-0.317 -6.0120001 -1.271 6.1530542
-0.29800001 -6.0009999 -1.2690001 6.1409416
-0.611 -13.411 -2.868 13.727843
-0.565 -13.316 -2.8469999 13.628664
-0.528 -13.448 -2.8759999 13.762226
0 0 0 0
-0.19400001 -5.9970002 -1.267 6.1324496
-0.175 -6.0110002 -1.27 6.1461897
-0.15700001 -6.0300002 -1.274 6.1651139
-0.133 -6.3130002 -1.34 6.4550185
-0.115 -6.414 -1.363 6.5582309
-0.093999997 -6.3759999 -1.354 6.5188594
-0.072999999 -6.2030001 -1.314 6.3410673
-0.034000002 -6.006 -1.268 6.1384864
-0.015 -5.9790001 -1.262 6.110754
-0.0060000001 -5.9959998 -1.266 6.1281977
0.016000001 -6.3390002 -1.345 6.4801393
0.035999998 -6.3670001 -1.352 6.5090623
0.056000002 -6.355 -1.349 6.4968424
0.088 -5.9780002 -1.262 6.1103907
0.097999997 -6.007 -1.2690001 6.1403599
0.116 -5.9759998 -1.261 6.1086946
0 0 0 0
0 0 0 0
0.229 -7.6729999 -1.655 7.8527951
0.25099999 -7.296 -1.568 7.4668093
0.221 -5.9920001 -1.266 6.1282673
0.25799999 -5.9850001 -1.265 6.1226635
0 0 0 0
0.35800001 -7.1469998 -1.535 7.3187423
0.38 -7.1360002 -1.5319999 7.3084826
0.38999999 -7.112 -1.527 7.2845297
0.40599999 -7.0139999 -1.5039999 7.1849179
0.37799999 -5.9489999 -1.258 6.0922942
0.398 -5.9720001 -1.263 6.1170549
0 0 0 0
0.53899997 -7.3070002 -1.574 7.4940143
0.55699998 -7.3800001 -1.591 7.5700679
0.50700003 -6.2509999 -1.33 6.4110026
0.50300002 -5.9790001 -1.267 6.1324339
0.523 -5.9910002 -1.27 6.1464224
0.53799999 -5.9510002 -1.261 6.1068788
0.56900001 -5.9790001 -1.268 6.1384058
0.58600003 -5.9619999 -1.265 6.1228313
0.60900003 -5.9990001 -1.274 6.1629505
0.62800002 -5.9990001 -1.274 6.1648569
0.64499998 -5.9809999 -1.271 6.1484814
0.67199999 -5.9679999 -1.268 6.138113
0 0 0 0
0.838 -7.0050001 -1.511 7.214942
0.86199999 -7.0149999 -1.5140001 7.2281027
0.91500002 -7.2540002 -1.571 7.4783545
0.78899997 -6.131 -1.309 6.3186364
0.792 -5.9400001 -1.265 6.1246295
0.81300002 -5.9489999 -1.268 6.1367245
1.0369999 -7.375 -1.602 7.6178999
1.043 -7.257 -1.575 7.4988346
1.0420001 -7.0910001 -1.5369999 7.3301034
1.0190001 -6.7930002 -1.4680001 7.0241184
0.91600001 -5.9359999 -1.268 6.1386456
0.93699998 -5.9489999 -1.272 6.1552052
0.95300001 -5.9299998 -1.268 6.1384797
0.97399998 -5.9429998 -1.272 6.1551533
1.02 -6.04 -1.296 6.2611194
1.021 -5.9369998 -1.272 6.1569791
1.03 -5.882 -1.26 6.1029849
1.043 -5.8439999 -1.252 6.0669341
1.0829999 -5.8559999 -1.257 6.0865159
1.091 -5.8509998 -1.256 6.0829282
1.109 -5.8449998 -1.255 6.0802078
1.135 -5.8779998 -1.2640001 6.1185617
1.146 -5.836 -1.255 6.0784235
1.186 -5.8460002 -1.2589999 6.0965066
1.205 -5.8439999 -1.2589999 6.0983148
1.212 -5.835 -1.257 6.0906663
1.2359999 -5.8579998 -1.2640001 6.1189504
1.252 -5.8400002 -1.261 6.1043615
1.293 -5.8530002 -1.266 6.1263542
1.3099999 -5.8439999 -1.2640001 6.1209583
1.329 -5.8410001 -1.265 6.1223969
1.3430001 -5.8600001 -1.27 6.1446037
1.382 -5.8590002 -1.271 6.1524992
1.397 -5.842 -1.268 6.1390877
1.4170001 -5.8429999 -1.27 6.1450334
1.4349999 -5.8379998 -1.27 6.1444578
1.464 -5.8390002 -1.271 6.1524515
1.487 -5.8499999 -1.275 6.1692219
1.51 -5.8660002 -1.28 6.1909981
1.524 -5.842 -1.275 6.1706696
1.541 -5.8309999 -1.274 6.1642776
1.572 -5.8390002 -1.278 6.1804848
1.852 -6.7789998 -1.505 7.1867776
1.876 -6.7820001 -1.507 7.1962457
1.8940001 -6.7649999 -1.5039999 7.1843214
1.92 -6.776 -1.508 7.2024055
1.942 -6.77 -1.508 7.202661
1.975 -6.7659998 -1.51 7.208292
2.003 -6.7810001 -1.515 7.2311268
2.0190001 -6.7589998 -1.511 7.2141223
2.0450001 -6.7680001 -1.515 7.2307034
2.069 -6.7690001 -1.516 7.2386727
2.1010001 -6.7610002 -1.517 7.2406225
2.1300001 -6.7779999 -1.523 7.2662034
2.1440001 -6.7490001 -1.517 7.2420321
2.171 -6.7589998 -1.521 7.2602177
2.1949999 -6.7600002 -1.523 7.2687793
2.2179999 -6.7600002 -1.525 7.2761769
2.2579999 -6.7719998 -1.53 7.3006468
2.276 -6.756 -1.528 7.2909875
2.3010001 -6.7610002 -1.531 7.3040867
2.3239999 -6.7600002 -1.533 7.3108592
2.345 -6.75 -1.5319999 7.308115
2.3840001 -6.7589998 -1.5369999 7.3300686
2.402 -6.743 -1.535 7.3207836
2.4300001 -6.7529998 -1.539 7.3400564
2.454 -6.7550001 -1.5420001 7.3505039
2.4760001 -6.7490001 -1.5420001 7.3523703
2.4960001 -6.7379999 -1.541 7.3488321
2.533 -6.7379999 -1.544 7.3621101
2.5610001 -6.75 -1.549 7.3838081
2.5869999 -6.7529998 -1.552 7.396234
2.6070001 -6.743 -1.552 7.3941326
2.6329999 -6.7459998 -1.554 7.4064918
2.668 -6.743 -1.557 7.4169078
2.697 -6.7519999 -1.561 7.436399
2.721 -6.7509999 -1.563 7.4446497
2.7490001 -6.7600002 -1.567 7.4639196
2.7880001 -6.7930002 -1.5779999 7.5105181
2.8840001 -6.9619999 -1.623 7.7085037
2.914 -6.9429998 -1.6210001 7.7022257
2.947 -6.9590001 -1.627 7.7304344
2.9679999 -6.948 -1.627 7.7285743
2.993 -6.948 -1.6289999 7.7386298
3.0350001 -6.9549999 -1.635 7.7625046
3.0599999 -6.9510002 -1.636 7.7689443
3.0840001 -6.9460001 -1.637 7.7741714
3.1110001 -6.947 -1.64 7.7864451
3.1340001 -6.941 -1.641 7.7905278
3.1949999 -6.9580002 -1.65 7.8322597
3.2 -6.941 -1.647 7.8185735
3.234 -6.9569998 -1.654 7.8482046
3.2539999 -6.9429998 -1.653 7.8438621
3.312 -6.9530001 -1.661 7.8786092
3.332 -6.9390001 -1.66 7.8744869
3.348 -6.9439998 -1.663 7.8863049
3.372 -6.9369998 -1.664 7.8905797
3.3970001 -6.9330001 -1.665 7.897995
3.4630001 -6.9569998 -1.677 7.9501286
3.48 -6.9359999 -1.674 7.9385624
3.5079999 -6.9369998 -1.678 7.9525919
3.523 -6.9400001 -1.6799999 7.9622564
3.5699999 -6.9250002 -1.682 7.9705491
3.605 -6.9380002 -1.688 7.9988256
3.6289999 -6.9320002 -1.689 8.0046854
3.655 -6.9289999 -1.692 8.0145445
3.665 -6.921 -1.691 8.0119877
3.723 -6.9239998 -1.698 8.0427427
3.7590001 -6.9380002 -1.705 8.0729761
3.7809999 -6.928 -1.705 8.0746622
3.8010001 -6.9120002 -1.704 8.0701275
3.8310001 -6.9159999 -1.7079999 8.0885649
3.8789999 -6.9250002 -1.715 8.1205597
3.904 -6.9169998 -1.717 8.1261425
3.9419999 -6.934 -1.725 8.1605968
3.977 -6.9450002 -1.7309999 8.1881571
3.9920001 -6.921 -1.728 8.17449
4.0380001 -6.9239998 -1.734 8.2008514
4.0749998 -6.9380002 -1.7410001 8.2324085
4.0879998 -6.9099998 -1.737 8.2144384
4.1139998 -6.9039998 -1.738 8.2225819
4.1490002 -6.9120002 -1.744 8.2481194
4.1719999 -6.8779998 -1.74 8.2304354
4.1960001 -6.868 -1.7410001 8.2344961
4.211 -6.8449998 -1.738 8.2223597
4.23 -6.8280001 -1.738 8.2179766
4.263 -6.8330002 -1.743 8.2402124
4.2750001 -6.8049998 -1.738 8.2221832
4.3189998 -6.803 -1.743 8.2445507
4.3369999 -6.7839999 -1.742 8.2381296
4.3579998 -6.7709999 -1.742 8.2385168
4.388 -6.77 -1.7460001 8.2544508
4.3979998 -6.7379999 -1.7410001 8.2325039
4.4380002 -6.73 -1.744 8.2480469
4.4499998 -6.7030001 -1.7410001 8.2318764
4.4679999 -6.6849999 -1.739 8.2265654
4.4980001 -6.6830001 -1.743 8.2421207
4.5170002 -6.6659999 -1.742 8.2385321
4.5510001 -6.6490002 -1.743 8.2437162
4.5580001 -6.6139998 -1.738 8.2183332
4.5799999 -6.6020002 -1.738 8.2209158
4.6139998 -6.6059999 -1.743 8.2441664
4.6199999 -6.5710001 -1.738 8.2184601
4.6690001 -6.553 -1.7410001 8.2324028
4.6680002 -6.5300002 -1.7359999 8.2124796
4.6929998 -6.5209999 -1.738 8.2199965
4.7220001 -6.5180001 -1.7410001 8.2348461
4.7550001 -6.4780002 -1.738 8.2216272
4.783 -6.473 -1.7410001 8.2345552
4.7870002 -6.4580002 -1.739 8.2246742
4.8060002 -6.441 -1.738 8.2222118
4.8379998 -6.441 -1.743 8.242013
4.8709998 -6.402 -1.74 8.230422
4.8940001 -6.3889999 -1.7410001 8.2341747
4.8959999 -6.3709998 -1.738 8.2207727
4.914 -6.3540001 -1.738 8.2183552
4.96 -6.3299999 -1.74 8.2278862
4.973 -6.3060002 -1.737 8.2166624
5.006 -6.3070002 -1.742 8.2384977
5.0089998 -6.27 -1.7359999 8.2107658
5.0250001 -6.27 -1.738 8.2209587
5.0640001 -6.2379999 -1.738 8.2205467
5.0760002 -6.2129998 -1.735 8.2083721
5.099 -6.2010002 -1.737 8.213974
5.1139998 -6.1789999 -1.735 8.2062931
5.1479998 -6.1609998 -1.737 8.2144375
5.1479998 -6.1230001 -1.73 8.1844931
5.1700001 -6.1090002 -1.7309999 8.1881094
5.2010002 -6.1059999 -1.735 8.2063303
5.2020001 -6.0689998 -1.729 8.1782036
5.224 -6.0560002 -1.729 8.1825886
5.2610002 -6.0419998 -1.733 8.1967783
5.2800002 -6.0250001 -1.733 8.1964817
5.3119998 -6.0229998 -1.737 8.2165098
5.316 -5.9899998 -1.732 8.1938868
5.3309999 -5.9689999 -1.7309999 8.1880941
5.3649998 -5.9499998 -1.733 8.1968899
5.3769999 -5.9260001 -1.73 8.1867266
5.4099998 -5.9250002 -1.735 8.2087727
5.4180002 -5.8959999 -1.732 8.1925192
5.4310002 -5.8730001 -1.73 8.1841793
5.467 -5.875 -1.7359999 8.2108107
5.4809999 -5.835 -1.7309999 8.1905403
5.4970002 -5.8150001 -1.73 8.1868267
5.4990001 -5.7800002 -1.725 8.1622934
5.5209999 -5.7670002 -1.726 8.1681576
5.5539999 -5.7649999 -1.7309999 8.1901464
5.5630002 -5.7210002 -1.725 8.1640949
5.599 -5.7220001 -1.7309999 8.1906319
5.6020002 -5.6890001 -1.726 8.1686106
5.618 -5.6700001 -1.726 8.1663885
5.6539998 -5.6700001 -1.732 8.192462
5.6719999 -5.652 -1.732 8.1924667
5.7280002 -5.6539998 -1.7410001 8.2346087
5.73 -5.6209998 -1.7359999 8.2123222
5.7589998 -5.6139998 -1.74 8.2286501
5.7849998 -5.6040001 -1.743 8.2406969
5.803 -5.5679998 -1.74 8.2283068
5.8319998 -5.5609999 -1.743 8.2446947
5.8400002 -5.5349998 -1.7410001 8.2324305
5.862 -5.52 -1.742 8.238204
5.8909998 -5.5120001 -1.7460001 8.254365
5.901 -5.4530001 -1.738 8.2205629
5.9250002 -5.4580002 -1.743 8.2421741
5.934 -5.4310002 -1.74 8.2301712
5.9460001 -5.4089999 -1.739 8.2241306
5.9790001 -5.3699999 -1.738 8.2222862
5.9970002 -5.3530002 -1.739 8.2245207
6.0170002 -5.3540001 -1.743 8.2406101
6.0219998 -5.3239999 -1.739 8.2239637
6.0409999 -5.3070002 -1.739 8.2269106
6.072 -5.2670002 -1.739 8.2240257
6.092 -5.2509999 -1.74 8.2287951
6.1079998 -5.2319999 -1.74 8.2285538
6.1059999 -5.2129998 -1.737 8.2143641
6.1430001 -5.178 -1.738 8.2200232
6.1550002 -5.1550002 -1.737 8.2143297
6.1729999 -5.1370001 -1.737 8.2165604
6.2069998 -5.1329999 -1.743 8.2409086
6.2350001 -5.1069999 -1.744 8.2461023
6.2420001 -5.0799999 -1.7410001 8.2340784
6.2509999 -5.0539999 -1.739 8.2244787
6.2820001 -5.0469999 -1.743 8.2446213
6.2849998 -5.0170002 -1.74 8.2279472
6.3130002 -4.9910002 -1.7410001 8.2337799
6.3280001 -4.9699998 -1.7410001 8.2325916
6.3429999 -4.9499998 -1.7410001 8.2320852
6.3709998 -4.9400001 -1.744 8.2483196
6.3899999 -4.9219999 -1.745 8.2524672
6.4050002 -4.902 -1.745 8.2521915
6.4200001 -4.8660002 -1.743 8.2421112
6.448 -4.855 -1.747 8.2583132
6.4619999 -4.8340001 -1.7460001 8.2567253
6.4580002 -4.8000002 -1.7410001 8.2326698
6.4809999 -4.7849998 -1.743 8.2424288
6.5050001 -4.7719998 -1.7460001 8.2544241
6.5289998 -4.7420001 -1.7460001 8.2560835
6.5510001 -4.7259998 -1.748 8.2647552
6.5650001 -4.7049999 -1.748 8.2638826
6.5689998 -4.677 -1.745 8.2505217
6.5960002 -4.665 -1.748 8.2658901
6.6220002 -4.6360002 -1.749 8.2705736
6.6469998 -4.6230001 -1.752 8.2839746
6.652 -4.5960002 -1.75 8.2725344
6.6630001 -4.572 -1.749 8.2678747
6.6869998 -4.5580001 -1.752 8.2801476
6.704 -4.5229998 -1.75 8.2742758
6.7309999 -4.5110002 -1.7539999 8.2904768
6.744 -4.4889998 -1.753 8.288888
6.7610002 -4.4699998 -1.7539999 8.2926798
6.7859998 -4.4559999 -1.757 8.3061895
6.8039999 -4.4219999 -1.757 8.302743
6.8280001 -4.4060001 -1.7589999 8.3143549
6.8299999 -4.3779998 -1.756 8.300561
6.8449998 -4.3569999 -1.757 8.3020792
6.8670001 -4.3410001 -1.7589999 8.3122826
6.8979998 -4.3000002 -1.76 8.3168507
6.9060001 -4.29 -1.76 8.318326
6.9289999 -4.2740002 -1.763 8.3298426
6.9299998 -4.244 -1.7589999 8.314476
6.9759998 -4.2129998 -1.765 8.3384151
6.9780002 -4.184 -1.762 8.3248415
6.993 -4.178 -1.7640001 8.3348322
7.0009999 -4.1529999 -1.762 8.3286285
7.0370002 -4.1149998 -1.765 8.3407326
7.0609999 -4.099 -1.768 8.3537626
7.0710001 -4.0749998 -1.767 8.3502674
7.0770001 -4.0640001 -1.767 8.3499889
7.1139998 -4.0549998 -1.774 8.3784904
7.1370001 -4.0100002 -1.773 8.3761806
7.1570001 -3.9909999 -1.775 8.3845901
7.1620002 -3.9649999 -1.773 8.3760967
7.1890001 -3.95 -1.777 8.392971
7.198 -3.9400001 -1.778 8.3961945
7.223 -3.895 -1.778 8.3966684
7.2449999 -3.878 -1.78 8.4081697
7.2519999 -3.852 -1.779 8.4020386
7.263 -3.8280001 -1.779 8.4005709
7.2839999 -3.796 -1.78 8.4044437
7.3060002 -3.7780001 -1.7819999 8.4158449
7.336 -3.7639999 -1.7869999 8.4367027
7.335 -3.7349999 -1.784 8.4222984
7.3429999 -3.71 -1.783 8.4180069
7.3540001 -3.6719999 -1.781 8.4105206
7.3670001 -3.6500001 -1.781 8.4123211
7.4029999 -3.6389999 -1.788 8.4405966
7.3930001 -3.605 -1.7819999 8.4159374
7.4060001 -3.5829999 -1.783 8.4181843
7.4439998 -3.572 -1.789 8.448245
7.4400001 -3.527 -1.784 8.4247246
7.4770002 -3.516 -1.791 8.4543171
7.4559999 -3.4779999 -1.783 8.4182844
7.4759998 -3.4579999 -1.785 8.4282007
7.4899998 -3.4360001 -1.786 8.4318438
7.4759998 -3.402 -1.78 8.4043188
7.506 -3.3729999 -1.783 8.4199915
7.5050001 -3.3440001 -1.78 8.406888
7.5100002 -3.3180001 -1.779 8.4008369
7.5409999 -3.303 -1.784 8.4237251
7.5209999 -3.267 -1.776 8.390048
7.5419998 -3.233 -1.778 8.3961496
7.5469999 -3.207 -1.776 8.3902464
7.5510001 -3.181 -1.775 8.3837337
7.5599999 -3.1570001 -1.775 8.3827724
7.5609999 -3.1300001 -1.772 8.3729086
7.5900002 -3.0999999 -1.776 8.3888187
7.5879998 -3.072 -1.773 8.3760643
7.5960002 -3.0469999 -1.773 8.3741846
7.6020002 -3.0220001 -1.772 8.3703575
7.6100001 -2.997 -1.771 8.3684263
7.618 -2.9590001 -1.77 8.3619671
7.6199999 -2.9319999 -1.768 8.3538523
7.6479998 -2.915 -1.773 8.3745241
7.6399999 -2.885 -1.7690001 8.3559675
7.6420002 -2.8310001 -1.765 8.3384619
7.6550002 -2.8080001 -1.766 8.3428202
7.6479998 -2.7920001 -1.763 8.3303862
7.6750002 -2.7750001 -1.767 8.3503618
7.7350001 -2.7690001 -1.78 8.4063063
7.822 -2.7449999 -1.7970001 8.4822121
7.8699999 -2.733 -1.807 8.5247545
7.8790002 -2.723 -1.808 8.5300779
7.8839998 -2.697 -1.807 8.5262251
7.8600001 -2.6340001 -1.7970001 8.4821444
7.8610001 -2.6070001 -1.795 8.4743023
7.8639998 -2.5799999 -1.794 8.4686089
7.8610001 -2.552 -1.791 8.4566965
7.848 -2.5339999 -1.7869999 8.438343
7.8210001 -2.471 -1.777 8.392354
7.8179998 -2.4430001 -1.774 8.3807192
7.823 -2.418 -1.774 8.3781338
7.7940001 -2.382 -1.765 8.3388004
7.7919998 -2.342 -1.762 8.324955
7.7859998 -2.313 -1.758 8.3103743
7.7950001 -2.289 -1.7589999 8.3123779
7.7909999 -2.2620001 -1.756 8.3005934
7.7849998 -2.233 -1.753 8.2864656
7.7969999 -2.211 -1.7539999 8.2920589
7.7930002 -2.1700001 -1.751 8.2768202
7.7979999 -2.145 -1.75 8.2748013
7.7930002 -2.1170001 -1.748 8.2624474
7.7919998 -2.0910001 -1.7460001 8.2544565
7.7779999 -2.0610001 -1.7410001 8.2326231
7.789 -2.0250001 -1.7410001 8.2340899
7.7810001 -1.9960001 -1.738 8.2187967
7.7849998 -1.971 -1.737 8.2163391
7.7740002 -1.943 -1.733 8.198391
7.7839999 -1.919 -1.734 8.2024364
7.77 -1.877 -1.729 8.1783533
7.7779999 -1.853 -1.729 8.1804848
7.776 -1.827 -1.727 8.1723089
7.7859998 -1.803 -1.728 8.1767101
7.789 -1.778 -1.728 8.1740923
7.7740002 -1.749 -1.723 8.1524725
7.763 -1.7079999 -1.7180001 8.1322174
7.7610002 -1.682 -1.716 8.1244631
7.7600002 -1.6569999 -1.715 8.1181574
7.7480001 -1.6289999 -1.711 8.1001644
7.7589998 -1.6059999 -1.712 8.1063099
7.7649999 -1.569 -1.712 8.1048088
7.7620001 -1.543 -1.71 8.0965176
7.757 -1.517 -1.7079999 8.0863838
7.7540002 -1.4910001 -1.706 8.0782442
7.7480001 -1.439 -1.702 8.0621977
7.743 -1.426 -1.701 8.0548697
7.7490001 -1.402 -1.701 8.056426
7.7379999 -1.375 -1.697 8.0403404
7.75 -1.352 -1.699 8.0484161
7.743 -1.3 -1.696 8.0324631
7.7410002 -1.288 -1.6950001 8.0283909
7.7389998 -1.262 -1.693 8.0219088
7.73 -1.2359999 -1.6900001 8.0085392
7.743 -1.188 -1.692 8.0142536
7.724 -1.161 -1.686 7.9906631
7.7309999 -1.137 -1.687 7.9941916
7.7329998 -1.125 -1.687 7.9944282
7.7350001 -1.1 -1.687 7.9928842
7.743 -1.052 -1.687 7.9941683
7.7210002 -1.024 -1.681 7.967947
7.7189999 -0.99900001 -1.6799999 7.9626226
7.7360001 -0.98900002 -1.683 7.9784904
7.717 -0.93699998 -1.678 7.9527192
7.7290001 -0.91399997 -1.6799999 7.9621124
7.7150002 -0.88800001 -1.676 7.9447308
7.7160001 -0.86400002 -1.675 7.9428444
7.71 -0.838 -1.674 7.9340167
7.7069998 -0.801 -1.6720001 7.9268551
7.7249999 -0.77899998 -1.675 7.9428015
7.717 -0.75300002 -1.673 7.9320884
7.698 -0.727 -1.668 7.9101176
7.71 -0.704 -1.67 7.9201398
7.6919999 -0.66600001 -1.665 7.8982682
7.6900001 -0.64099997 -1.664 7.8940406
7.6690001 -0.61500001 -1.659 7.8704553
7.671 -0.59100002 -1.659 7.8705659
7.684 -0.56800002 -1.6619999 7.8821778
7.665 -0.542 -1.6569999 7.8607655
7.677 -0.50700003 -1.659 7.8705564
7.6550002 -0.48100001 -1.654 7.8464074
7.6550002 -0.45699999 -1.653 7.8447618
7.6700001 -0.43399999 -1.656 7.858727
7.6609998 -0.40900001 -1.654 7.8481793
7.6490002 -0.373 -1.651 7.8340368
7.6329999 -0.34799999 -1.647 7.8164186
7.6399999 -0.324 -1.648 7.8224344
7.6370001 -0.30000001 -1.647 7.818336
7.632 -0.27599999 -1.646 7.8123565
7.6430001 -0.252 -1.648 7.8227143
7.6339998 -0.21600001 -1.646 7.8124213
7.6290002 -0.192 -1.645 7.8066978
7.618 -0.168 -1.642 7.7947617
7.612 -0.14300001 -1.641 7.7881885
7.6149998 -0.108 -1.641 7.7905564
7.6110001 -0.083999999 -1.64 7.78614
7.6040001 -0.059999999 -1.638 7.7786541
7.5999999 -0.035999998 -1.637 7.774385
7.5840001 0.012 -1.6339999 7.7580385
7.598 0.035999998 -1.637 7.7724304
7.592 0.048 -1.636 7.7664189
7.5939999 0.071999997 -1.636 7.7685595
7.5939999 0.094999999 -1.636 7.7688065
7.5929999 0.14300001 -1.636 7.7685642
7.5830002 0.167 -1.6339999 7.7588491
7.592 0.17900001 -1.636 7.768333
7.586 0.20299999 -1.635 7.7628493
7.5830002 0.226 -1.6339999 7.7603431
7.5809999 0.27399999 -1.6339999 7.7599349
7.579 0.29800001 -1.6339999 7.7588658
7.5799999 0.322 -1.6339999 7.7608013
7.579 0.333 -1.6339999 7.7602892
7.5809999 0.38100001 -1.635 7.7646599
7.585 0.405 -1.637 7.7702007
7.586 0.42899999 -1.637 7.7724643
7.5809999 0.45300001 -1.636 7.7687359
7.586 0.465 -1.637 7.7745342
7.5710001 0.51200002 -1.635 7.7624359
7.5640001 0.53500003 -1.633 7.7567396
7.5749998 0.56 -1.637 7.7700701
7.5619998 0.583 -1.6339999 7.7584591
7.5619998 0.60699999 -1.6339999 7.7602997
7.5630002 0.64300001 -1.635 7.7643828
7.553 0.66600001 -1.633 7.7561626
7.5430002 0.68900001 -1.632 7.7482252
7.539 0.713 -1.631 7.7462926
7.5370002 0.736 -1.631 7.7464976
7.5570002 0.77399999 -1.637 7.7709131
7.5560002 0.79799998 -1.637 7.7723684
7.5359998 0.81999999 -1.633 7.7543783
7.5430002 0.84500003 -1.635 7.7642837
7.5349998 0.86799997 -1.6339999 7.7588406
7.5339999 0.89200002 -1.6339999 7.760591
7.5279999 0.92699999 -1.6339999 7.7588706
7.5209999 0.94999999 -1.633 7.7546525
7.5139999 0.97299999 -1.632 7.7505064
7.513 0.99699998 -1.632 7.7525868
7.5100002 1.021 -1.632 7.7528043
7.5089998 1.056 -1.633 7.7567329
7.5009999 1.08 -1.632 7.7520852
7.4920001 1.102 -1.631 7.7462654
7.4910002 1.126 -1.632 7.74896
7.4910002 1.15 -1.632 7.7524838
7.4970002 1.175 -1.635 7.7626586
7.4889998 1.21 -1.6339999 7.7601013
7.4829998 1.233 -1.6339999 7.7579336
7.4780002 1.257 -1.633 7.7567534
7.4790001 1.281 -1.635 7.7620635
7.4809999 1.318 -1.637 7.7706017
7.4829998 1.342 -1.638 7.7768435
7.4860001 1.367 -1.64 7.784503
7.474 1.3890001 -1.638 7.7764416
7.4809999 1.415 -1.641 7.7884827
7.4759998 1.4630001 -1.641 7.7925491
7.4699998 1.474 -1.641 7.7888675
7.4710002 1.498 -1.642 7.7946143
7.4619999 1.521 -1.641 7.7902355
7.46 1.569 -1.643 7.7982569
7.448 1.591 -1.641 7.7908192
7.4450002 1.603 -1.641 7.7904119
7.4460001 1.628 -1.642 7.7967596
7.4369998 1.65 -1.641 7.792583
7.4450002 1.701 -1.646 7.8122177
7.4320002 1.723 -1.6440001 7.8042355
7.4320002 1.747 -1.646 7.8099904
7.4489999 1.7640001 -1.65 7.8308234
7.4299998 1.784 -1.647 7.8166595
7.4169998 1.83 -1.646 7.8147364
7.4349999 1.86 -1.652 7.8401484
7.441 1.886 -1.655 7.852675
7.421 1.893 -1.651 7.8345699
7.4180002 1.942 -1.653 7.8441377
7.4099998 1.965 -1.653 7.8423038
7.4000001 1.987 -1.652 7.8381934
7.401 2.013 -1.654 7.8461895
7.3930001 2.0350001 -1.653 7.8441114
7.3889999 2.072 -1.655 7.8504477
7.3979998 2.099 -1.658 7.8667121
7.3779998 2.119 -1.655 7.8526473
7.3920002 2.148 -1.66 7.8747172
7.3829999 2.1700001 -1.66 7.8723049
7.3839998 2.2090001 -1.6619999 7.8845024
7.381 2.233 -1.663 7.8886638
7.3720002 2.256 -1.663 7.8867922
7.368 2.28 -1.664 7.8901663
7.3720002 2.3069999 -1.666 7.9021635
7.3740001 2.345 -1.669 7.9158363
7.3709998 2.3699999 -1.67 7.9206967
7.3759999 2.3970001 -1.674 7.934309
7.3590002 2.4170001 -1.671 7.9239516
7.3610001 2.4430001 -1.674 7.9344091
