# .PCD v0.7 - Point Cloud Data file format
VERSION 0.7
FIELDS x y z intensity
SIZE 4 4 4 4
TYPE F F F F
COUNT 1 1 1 1
WIDTH 1332
HEIGHT 1
VIEWPOINT 0 0 0 1 0 0 0
POINTS 1332
DATA ascii
-12.05 2.0969999 -0.92299998 12.265882
-12.031 2.0539999 -0.921 12.239776
-12.012 1.974 -0.91799998 12.207685
-11.988 1.95 -0.91500002 12.179978
-11.974 1.909 -0.91399997 12.15962
-11.959 1.868 -0.912 12.138321
-11.961 1.83 -0.91100001 12.134429
-11.934 1.749 -0.90799999 12.095612
-11.919 1.728 -0.90600002 12.077639
-11.895 1.686 -0.903 12.047782
-11.883 1.646 -0.90200001 12.030321
-11.851 1.566 -0.898 11.9877
-11.866 1.53 -0.89899999 11.99796
-11.831 1.488 -0.89499998 11.957747
-11.849 1.471 -0.89700001 11.973606
-11.917 1.442 -0.90200001 12.037767
-12.068 1.3839999 -0.91600001 12.18159
-14.111 1.577 -1.104 14.241701
-14.086 1.53 -1.101 14.211562
-14.077 1.484 -1.1 14.197682
-14.258 1.4349999 -1.1160001 14.373422
-14.292 1.3940001 -1.119 14.403356
-14.398 1.358 -1.128 14.505824
-14.511 1.323 -1.138 14.615557
-14.612 1.286 -1.147 14.713258
-14.724 1.25 -1.1569999 14.82219
-14.84 1.2130001 -1.168 14.935234
-15.056 1.16 -1.187 15.147201
-15.175 1.1210001 -1.198 15.263435
-15.302 1.082 -1.209 15.387774
-15.407 1.041 -1.2180001 15.490088
-15.529 1.001 -1.229 15.609686
-15.752 0.94099998 -1.249 15.829434
-15.882 0.89899999 -1.261 15.957326
-15.996 0.85500002 -1.271 16.06918
-16.129999 0.81199998 -1.283 16.201305
-16.424 0.72299999 -1.3099999 16.492016
-16.552 0.70300001 -1.322 16.619585
-16.709 0.65700001 -1.336 16.775196
-16.844999 0.61000001 -1.348 16.909855
-16.908001 0.55900002 -1.354 16.971336
-16.875999 0.45199999 -1.351 16.936022
-16.846001 0.42500001 -1.348 16.905191
-16.837999 0.37200001 -1.347 16.895887
-16.823 0.31799999 -1.345 16.879677
-16.799 0.212 -1.3430001 16.853931
-16.783001 0.15899999 -1.342 16.83732
-16.780001 0.107 -1.341 16.833839
-16.896999 0.081 -1.352 16.951197
-17.245001 -0.0060000001 -1.182 17.285461
-17.42 -0.061000001 -1.197 17.461184
-17.573999 -0.117 -1.209 17.615925
-17.743 -0.17299999 -1.222 17.785873
-18.083 -0.26100001 -1.25 18.128031
-18.261 -0.32100001 -1.2640001 18.307507
-18.451 -0.382 -1.28 18.49929
-18.632999 -0.44400001 -1.294 18.683153
-18.815001 -0.50700003 -1.309 18.867294
-19.033001 -0.57300001 -1.327 19.087807
-19.615999 -0.68199998 -1.374 19.675884
-19.649 -0.745 -1.377 19.711275
-19.868 -0.815 -1.3940001 19.933512
-20.09 -0.88700002 -1.4119999 20.159082
-20.322001 -0.96100003 -1.431 20.394974
-22.792999 -1.183 -1.63 22.881809
-23.028 -1.267 -1.649 23.121704
-23.238001 -1.352 -1.6670001 23.336912
-23.636 -1.449 -1.699 23.741243
-13.939 -0.93900001 -1 14.006336
-14.013 -0.96700001 -1.006 14.082304
-13.974 -1.008 -1.003 14.046165
-13.949 -1.05 -1.001 14.024233
-13.908 -1.135 -0.99900001 13.989949
-13.905 -1.179 -0.99900001 13.990606
-13.905 -1.223 -0.99900001 13.994383
-13.899 -1.244 -0.99900001 13.990273
-13.843 -1.327 -0.99400002 13.941937
-13.825 -1.369 -0.99299997 13.928059
-13.825 -1.413 -0.99400002 13.932524
-13.812 -1.455 -0.99299997 13.92388
-13.785 -1.518 -0.991 13.903691
-13.697 -1.552 -0.98400003 13.819724
-13.75 -1.602 -0.98900002 13.878293
-13.761 -1.647 -0.99000001 13.894526
-13.736 -1.688 -0.98900002 13.874623
-13.732 -1.7309999 -0.98900002 13.875962
-13.718 -1.795 -0.98799998 13.870173
-13.7 -1.836 -0.98699999 13.857671
-13.706 -1.881 -0.98799998 13.869706
-13.689 -1.9220001 -0.98699999 13.858461
-13.682 -1.965 -0.98699999 13.85758
-13.727 -2.016 -0.99199998 13.909668
-13.678 -2.075 -0.98799998 13.869732
-13.693 -2.1210001 -0.99000001 13.891616
-13.7 -2.1659999 -0.991 13.905525
-13.7 -2.21 -0.99199998 13.912518
0 0 0 0
0 0 0 0
-14.096 -2.434 -1.029 14.341562
-14.265 -2.51 -1.044 14.521717
-14.514 -2.6010001 -1.067 14.783771
-14.767 -2.6949999 -1.089 15.050358
-15.839 -2.9779999 -1.092 16.153479
-16.402 -3.1359999 -1.1390001 16.737904
-29.169001 -5.651 -2.1830001 29.791441
-29.132999 -5.7399998 -2.181 29.773075
-29.121 -5.8319998 -2.1819999 29.779287
-32.287998 -6.572 -2.227 33.025223
-32.294998 -6.7319999 -2.23 33.064476
-32.300999 -6.8390002 -2.2320001 33.092419
-32.299 -6.9450002 -2.233 33.112606
-32.535999 -7.1030002 -2.253 33.378437
-33.639 -7.566 -2.3399999 34.558678
-33.394001 -7.566 -2.322 34.319023
-33.201 -7.632 -2.309 34.145061
-33.057999 -7.7090001 -2.3 34.022789
-32.964001 -7.796 -2.2950001 33.950993
-32.755001 -7.9640002 -2.283 33.786499
-32.659 -7.9949999 -2.277 33.700371
-32.563 -8.0799999 -2.2709999 33.627262
-32.444 -8.1590004 -2.2639999 33.530704
-32.258999 -8.3280001 -2.2539999 33.392803
-32.159 -8.4099998 -2.2479999 33.316406
-32.067001 -8.493 -2.243 33.248379
-31.985001 -8.5249996 -2.2379999 33.17717
-31.898001 -8.6090002 -2.233 33.114704
-31.712999 -8.7729998 -2.223 32.979111
-31.606001 -8.8509998 -2.217 32.896725
-31.514999 -8.9320002 -2.2130001 32.830978
-31.431 -9.0150003 -2.2079999 32.772751
-28.250999 -8.2480001 -2.1600001 29.509558
-28.152 -8.3149996 -2.154 29.433214
-28.083 -8.3909998 -2.151 29.388613
-28.007 -8.4639997 -2.1470001 29.336683
-27.933001 -8.5380001 -2.1429999 29.287241
-27.886999 -8.6680002 -2.142 29.281513
-27.848 -8.7519999 -2.141 29.26931
-27.809 -8.8360004 -2.1400001 29.257391
-27.778999 -8.9219999 -2.1400001 29.254992
-27.745001 -9.0080004 -2.1389999 29.249008
-27.695999 -9.0880003 -2.138 29.227232
-27.629999 -9.2110004 -2.1359999 29.203115
-27.610001 -9.3009996 -2.1370001 29.212797
-27.566 -9.382 -2.135 29.196995
-27.535 -9.4680004 -2.135 29.195503
-27.49 -9.5489998 -2.1340001 29.179401
-27.455999 -9.6339998 -2.1340001 29.175329
-27.389 -9.7559996 -2.132 29.152739
-27.355 -9.8409996 -2.131 29.149313
-27.32 -9.9259996 -2.131 29.145308
-27.287001 -10.011 -2.131 29.143467
-27.250999 -10.095 -2.131 29.138756
-27.183001 -10.216 -2.1289999 29.11726
-27.138 -10.296 -2.128 29.103386
-27.09 -10.375 -2.1270001 29.086643
-27.070999 -10.466 -2.128 29.101624
-27.045 -10.553 -2.128 29.10887
-26.943001 -10.66 -2.1240001 29.052921
-26.514999 -10.588 -2.0899999 28.627243
-26.129999 -10.53 -2.059 28.247076
-25.482 -10.362 -2.006 27.581287
-25.014 -10.264 -1.9680001 27.109461
-24.569 -10.218 -1.934 26.679276
-23.555 -9.8839998 -1.848 25.611454
-23.292 -9.8599997 -1.8279999 25.358992
-22.854 -9.7600002 -1.793 24.915413
-22.778999 -9.8129997 -1.789 24.867214
-22.664 -9.9329996 -1.784 24.809353
0 0 0 0
-22.601999 -10.033 -1.783 24.792953
-22.410999 -10.032 -1.7690001 24.61754
-22.4 -10.197 -1.774 24.675613
-22.504 -10.329 -1.786 24.825552
-22.596001 -10.458 -1.7970001 24.963537
-22.48 -10.447 -1.788 24.853312
-22.518999 -10.551 -1.794 24.932858
-22.410999 -10.673 -1.791 24.887217
-22.542999 -10.822 -1.8049999 25.071108
-22.684999 -10.978 -1.821 25.267405
-22.763 -11.06 -1.829 25.373667
-21.861 -10.793 -1.755 24.443243
-22.1 -10.997 -1.78 24.748987
-21.693001 -10.88 -1.7460001 24.33124
-21.677999 -10.958 -1.748 24.353006
-21.9 -11.156 -1.771 24.641485
-21.847 -11.259 -1.771 24.641285
-21.841 -11.344 -1.774 24.675142
-21.573999 -11.291 -1.753 24.413052
-21.459 -11.317 -1.745 24.322998
-20.320999 -10.8 -1.645 23.07139
-20.320999 -10.923 -1.65 23.12958
-21.107 -11.43 -1.725 24.065037
-20.889 -11.397 -1.7079999 23.857058
-21.607 -11.876 -1.777 24.71962
-20.52 -11.365 -1.681 23.517214
-20.457001 -11.414 -1.678 23.485825
-19.969999 -11.266 -1.6390001 22.987169
-21.135 -12.009 -1.749 24.371363
-21.107 -12.082 -1.75 24.383245
-21.187 -12.215 -1.761 24.519306
-20.888 -12.131 -1.737 24.217491
-20.547001 -12.063 -1.711 23.887711
-20.490999 -12.117 -1.709 23.866785
-19.9 -11.853 -1.6569999 23.221741
-20.742001 -12.441 -1.74 24.249468
-21.158001 -12.781 -1.7819999 24.782867
-20.818001 -12.666 -1.7539999 24.431398
-20.490999 -12.6 -1.729 24.117016
-20.523001 -12.708 -1.7359999 24.20125
-20.292999 -12.655 -1.7180001 23.977205
-19.983 -12.549 -1.692 23.657145
-19.954 -12.618 -1.693 23.669439
-20.516001 -13.109 -1.752 24.40946
0 0 0 0
-19.368 -12.549 -1.651 23.137041
-20.211 -13.184 -1.735 24.193235
0 0 0 0
-12.601 -8.3599997 -1.099 15.16188
-12.551 -8.3839998 -1.097 15.133488
-12.531 -8.4280005 -1.097 15.141353
-20.877001 -14.137 -1.822 25.278917
-20.785999 -14.267 -1.822 25.276962
-20.503 -14.168 -1.799 24.98683
-20.33 -14.096 -1.784 24.802999
-20.163 -14.074 -1.772 24.65287
-21.542 -15.237 -1.916 26.455528
-21.487 -15.3 -1.915 26.447086
-19.358999 -13.879 -1.71 23.881405
-21.648001 -15.568 -1.938 26.734892
-21.792999 -15.776 -1.9579999 26.975002
-21.500999 -15.771 -1.938 26.735243
-21.424999 -15.82 -1.936 26.703016
-21.488001 -15.97 -1.947 26.843359
-21.517 -16.097 -1.955 26.942842
-21.469999 -16.219999 -1.9579999 26.979307
-21.372999 -16.253 -1.9529999 26.921726
-21.277 -16.285999 -1.949 26.865276
-21.186001 -16.322001 -1.9450001 26.814873
-21.17 -16.415001 -1.948 26.859186
-21.167 -16.52 -1.9529999 26.921488
-21.306 -16.791 -1.975 27.198969
-21.318001 -16.908001 -1.982 27.281239
-21.431 -17.108 -1.999 27.494862
-21.356001 -17.158001 -1.997 27.467505
-21.157 -17.108 -1.982 27.28059
-21.106001 -17.232 -1.985 27.319323
-21.035 -17.284 -1.983 27.297256
-20.952999 -17.327 -1.98 27.261208
-15.1 -12.577 -1.376 19.699856
-15.088 -12.647 -1.378 19.735584
-20.615 -17.378 -1.962 27.03373
-20.483999 -17.433001 -1.957 26.969124
-20.406 -17.478001 -1.955 26.938957
-20.26 -17.464001 -1.9450001 26.818687
-20.24 -17.558001 -1.949 26.865211
-20.242001 -17.671 -1.955 26.941137
-19.330999 -17.038 -1.8660001 25.835302
-18.444 -16.361 -1.777 24.718843
-18.437 -16.459 -1.7819999 24.778967
-19.002001 -17.069 -1.848 25.609411
-19.593 -17.711 -1.918 26.48101
-19.423 -17.724001 -1.909 26.363562
-19.382 -17.798 -1.91 26.383307
-19.271 -17.809 -1.904 26.30888
-19.132999 -17.794001 -1.895 26.197121
-17.794001 -16.655001 -1.7539999 24.435467
-18.909 -17.864 -1.886 26.081215
-18.812 -17.885 -1.882 26.025114
-18.697001 -17.888 -1.875 25.943668
-16.657 -16.040001 -1.654 23.183464
-16.796 -16.378 -1.681 23.519571
-16.555 -16.245001 -1.66 23.253466
-16.683001 -16.422001 -1.677 23.46949
-16.827999 -16.669001 -1.699 23.747078
-16.634001 -16.580999 -1.683 23.546804
-15.888 -16.039 -1.61 22.633385
-15.402 -15.647 -1.5599999 22.010994
-15.646 -15.945 -1.591 22.395794
-15.321 -15.713 -1.5599999 22.001478
-15.667 -16.268999 -1.6109999 22.643555
-17.306999 -18.082001 -1.807 25.094944
-17.198 -18.082001 -1.801 25.019464
-17.097 -18.089001 -1.796 24.954859
-17.02 -18.063999 -1.79 24.883581
-16.753 -18.007 -1.772 24.658772
-15.017 -16.246 -1.574 22.179276
-14.627 -15.925 -1.534 21.677359
-14.548 -15.94 -1.53 21.634897
-14.284 -15.75 -1.505 21.315725
-15.254 -16.976999 -1.63 22.881432
-15.061 -16.868999 -1.613 22.671537
-15.508 -17.479 -1.674 23.426817
-15.296 -17.35 -1.655 23.188988
-15.304 -17.468 -1.6619999 23.283163
-15.287 -17.615999 -1.67 23.383854
-15.222 -17.653 -1.669 23.369282
-14.92 -17.413 -1.6390001 22.989243
-14.827 -17.416 -1.6339999 22.930918
-14.372 -16.99 -1.584 22.309719
-14.457 -17.200001 -1.602 22.525791
-14.082 -16.915001 -1.5650001 22.065113
-13.859 -16.754999 -1.544 21.798758
-13.679 -16.643 -1.527 21.597134
-13.567 -16.614 -1.52 21.503462
-13.843 -17.059999 -1.562 22.025261
-12.88 -16.028999 -1.449 20.613657
-12.933 -16.198999 -1.462 20.77998
-12.48 -15.734 -1.41 20.131996
-12.65 -16.051001 -1.439 20.487259
-12.033 -15.37 -1.365 19.567657
-12.607 -16.204 -1.446 20.581472
-11.976 -15.546 -1.373 19.672005
-11.918 -15.572 -1.372 19.65727
-12.188 -16.028 -1.414 20.18523
-11.896 -15.747 -1.382 19.783648
-11.904 -15.861 -1.39 19.879856
-11.161 -15.02 -1.3 18.757887
-11.045 -14.962 -1.291 18.641891
-11.504 -15.685 -1.36 19.498997
-11.215 -15.393 -1.327 19.091402
-11.122 -15.367 -1.321 19.015484
-10.781 -15.045 -1.284 18.553453
-10.729 -15.072 -1.283 18.545153
-10.866 -15.366 -1.309 18.865244
-10.953 -15.593 -1.3279999 19.101662
-10.612 -15.311 -1.293 18.673862
-10.643 -15.408 -1.301 18.771587
-10.696 -15.589 -1.316 18.951336
-10.66 -15.641 -1.317 18.973955
-10.315 -15.239 -1.275 18.445919
-10.033 -15.025 -1.248 18.109919
-9.9849997 -15.056 -1.248 18.109137
-10.118 -15.308 -1.271 18.393591
-10.094 -15.376 -1.275 18.437349
-9.9659996 -15.391 -1.27 18.379797
-9.9289999 -15.441 -1.272 18.401834
-9.9639997 -15.601 -1.284 18.555893
-9.7939997 -15.39 -1.262 18.285709
-9.7270002 -15.39 -1.26 18.249773
-13.759 -22.055 -1.885 26.063122
-9.6940002 -15.662 -1.277 18.463549
-9.5839996 -15.594 -1.267 18.347511
-9.4139996 -15.427 -1.249 18.115622
-9.224 -15.279 -1.2309999 17.889812
-9.2629995 -15.451 -1.244 18.057798
-9.1719999 -15.41 -1.238 17.975716
-9.1269999 -15.444 -1.238 17.981989
-9.0209999 -15.374 -1.229 17.867533
-8.9759998 -15.409 -1.23 17.875088
-8.9110003 -15.465 -1.2309999 17.890989
-8.7910004 -15.369 -1.219 17.747501
-8.823 -15.531 -1.335 17.911993
-7.2090001 -12.774 -1.0599999 14.706065
-8.7399998 -15.618 -1.235 17.939753
-8.5880003 -15.518 -1.222 17.777946
-7.0419998 -12.805 -1.0549999 14.651649
-6.9920001 -12.808 -1.053 14.630165
-6.9650002 -12.854 -1.056 14.65782
-6.9130001 -12.855 -1.054 14.633916
-6.8660002 -12.864 -1.053 14.619619
-7.243 -13.729 -1.133 15.563745
-7.3119998 -13.968 -1.154 15.808291
-6.6900001 -12.874 -1.046 14.546137
-6.7220001 -13.035 -1.0599999 14.704425
-6.4920001 -12.734 -1.028 14.330303
-6.665 -13.178 -1.068 14.806166
-6.572 -13.095 -1.059 14.68985
-6.5190001 -13.093 -1.056 14.664214
-5.9829998 -12.204 -0.96700001 13.626041
-6.27 -12.893 -1.031 14.373772
-6.2490001 -12.903 -1.031 14.3736
-7.1529999 -14.899 -1.22 16.572086
-5.7420001 -12.044 -0.94599998 13.376225
-5.6300001 -12.002 -0.93900001 13.290094
-5.5749998 -11.984 -0.935 13.250325
-5.5560002 -11.991 -0.935 13.248677
-5.619 -12.229 -0.95599997 13.492055
-5.5370002 -12.15 -0.94700003 13.385727
-5.4829998 -12.236 -0.95200002 13.442072
-5.0279999 -11.311 -0.86299998 12.408234
-4.9749999 -11.286 -0.85900003 12.36375
-4.9489999 -11.276 -0.85799998 12.344106
-8.3879995 -19.473 -1.5 21.255735
-5.1989999 -12.16 -0.93599999 13.257877
-5.0630002 -11.943 -0.91399997 13.004023
-4.8109999 -11.446 -0.866 12.446148
-4.7389998 -11.424 -0.86199999 12.397941
-4.7020001 -11.437 -0.86199999 12.39584
-4.5999999 -11.29 -0.847 12.220536
-4.7129998 -11.674 -0.88099998 12.620254
-4.5430002 -11.352 -0.85000002 12.256804
-4.5019999 -11.355 -0.84899998 12.244379
-4.4850001 -11.469 -0.85799998 12.344608
-4.4120002 -11.386 -0.84899998 12.240406
-4.3759999 -11.4 -0.84899998 12.240514
-4.3330002 -11.395 -0.847 12.220407
-4.2940001 -11.401 -0.84600002 12.212164
-5.9089999 -15.959 -1.164 17.057575
-4.316 -11.738 -0.87400001 12.53684
-4.2789998 -11.753 -0.87400001 12.538211
-4.2480001 -11.783 -0.87599999 12.555954
-4.4239998 -12.396 -0.93000001 13.194601
-4.3260002 -12.242 -0.91500002 13.016069
-4.1589999 -11.946 -0.88599998 12.680268
-4.138 -12.006 -0.89099997 12.730316
-4.2210002 -12.376 -0.92299998 13.108553
-4.177 -12.374 -0.92199999 13.092489
-4.1079998 -12.296 -0.91299999 12.996185
-4.0240002 -12.236 -0.90600002 12.912518
-4.0599999 -12.48 -0.92699999 13.156493
-4.0050001 -12.443 -0.92299998 13.104205
-3.967 -12.459 -0.92299998 13.107848
-3.9260001 -12.466 -0.92299998 13.102159
-4.0780001 -13.095 -0.97799999 13.750113
-4.0469999 -13.217 -0.98699999 13.857903
-4.0009999 -13.213 -0.986 13.840649
-3.971 -13.265 -0.98900002 13.881902
-4.2140002 -14.247 -1.076 14.896059
-4.2620001 -14.578 -1.105 15.228386
-3.9230001 -13.651 -1.02 14.240089
-3.9070001 -13.761 -1.029 14.341847
-3.858 -13.752 -1.027 14.319791
-3.802 -13.718 -1.023 14.271834
-3.846 -14.225 -1.066 14.774258
-3.8440001 -14.308 -1.073 14.854175
-3.8169999 -14.387 -1.079 14.92379
-3.7969999 -14.498 -1.087 15.026336
-3.7720001 -14.59 -1.095 15.109438
-3.7 -14.691 -1.101 15.189723
-3.677 -14.796 -1.11 15.2864
-3.671 -14.873 -1.1160001 15.359942
-3.573 -14.671 -1.097 15.139616
-3.4549999 -14.587 -1.0880001 15.030015
0 0 0 0
-3.348 -14.54 -1.082 14.959661
-8.1400003 -35.595001 -2.49 36.598686
-3.625 -16.131001 -1.125 16.571524
-3.576 -16.152 -1.126 16.581398
-3.4790001 -16.194 -1.128 16.601851
-3.414 -16.139999 -1.122 16.535231
-3.372 -16.190001 -1.126 16.575718
-3.346 -16.195 -1.126 16.575331
-3.434 -16.882999 -1.181 17.269129
-3.171 -16.113001 -1.1160001 16.459936
-3.2290001 -16.68 -1.1619999 17.02936
-6.6849999 -35.307999 -2.447 36.018494
-6.5739999 -35.328999 -2.447 36.018654
-6.4530001 -35.294998 -2.4430001 35.963127
-3.256 -18.181999 -1.281 18.515604
-5.948 -33.694 -2.5439999 34.309418
-3.1389999 -18.186001 -1.28 18.499252
-5.987 -35.241001 -2.4330001 35.828644
-2.3970001 -14.531 -1.0650001 14.765832
-2.4030001 -14.859 -1.0930001 15.091685
-2.309 -14.562 -1.066 14.782412
-2.253 -14.504 -1.061 14.716241
-2.214 -14.556 -1.0650001 14.761882
-2.1210001 -14.399 -1.05 14.592201
-2.0739999 -14.396 -1.049 14.582411
-2.0179999 -14.323 -1.0420001 14.501945
-1.9680001 -14.29 -1.039 14.462249
-1.905 -14.162 -1.027 14.326409
-1.859 -14.152 -1.026 14.310405
-1.771 -13.994 -1.012 14.141875
-1.7079999 -13.839 -0.99800003 13.979671
-1.673 -13.916 -1.0039999 14.052117
-1.642 -14.036 -1.0140001 14.168051
-1.603 -14.087 -1.018 14.214413
-1.52 -13.937 -1.0039999 14.055546
-1.474 -13.922 -1.003 14.035696
-1.432 -13.947 -1.0039999 14.056224
-1.387 -13.937 -1.003 14.041715
-1.3099999 -13.819 -0.99199998 13.916355
-1.2690001 -13.855 -0.995 13.948526
-1.2180001 -13.765 -0.98699999 13.853986
-1.177 -13.801 -0.99000001 13.886433
-1.135 -13.818 -0.991 13.899907
-1.044 -13.775 -0.98699999 13.849719
-1.026 -13.827 -0.991 13.900384
-0.92000002 -12.921 -0.91299999 12.985847
-0.87099999 -12.803 -0.90200001 12.864255
-0.79900002 -12.947 -0.91399997 13.003792
-0.773 -13.2 -0.93599999 13.255701
-0.74800003 -13.521 -0.963 13.575872
-0.71499997 -13.284 -0.94300002 13.336609
-0.59200001 -12.418 -0.86799997 12.462368
-0.55900002 -12.569 -0.88099998 12.612232
-0.514 -12.441 -0.86900002 12.4819
-0.50300002 -13.221 -0.93599999 13.263632
-0.472 -12.906 -0.90899998 12.946578
-0.384 -12.671 -0.889 12.707951
-0.338 -12.413 -0.866 12.447762
-0.28200001 -11.64 -0.80000001 11.670867
-0.244 -11.577 -0.79400003 11.60676
-0.19 -11.655 -0.801 11.684037
-0.15700001 -11.935 -0.82499999 11.96451
-0.117 -11.66 -0.801 11.688066
-0.081 -11.675 -0.80299997 11.702863
-0.044 -11.677 -0.80299997 11.70466
-0.0070000002 -11.756 -0.81 11.783874
0.048999999 -11.892 -0.82099998 11.920407
0.090999998 -12.324 -0.85799998 12.354166
0.124 -11.929 -0.82499999 11.958137
0.161 -11.897 -0.82200003 11.926451
0.2 -11.964 -0.82800001 11.994285
0.23899999 -12.023 -0.833 12.054192
0.292 -11.892 -0.82200003 11.923951
0.32800001 -11.848 -0.81800002 11.880733
0.36700001 -11.894 -0.82200003 11.928019
0.40400001 -11.893 -0.82200003 11.928217
0.46399999 -12.453 -0.87 12.491974
0.54699999 -13.01 -0.91799998 13.053813
0.61199999 -13.526 -0.963 13.574041
0.60600001 -12.557 -0.88 12.602376
0.64600003 -12.557 -0.88 12.604362
0.68599999 -12.563 -0.88099998 12.612522
0.74599999 -12.903 -0.91000003 12.956544
0.79000002 -12.644 -0.88800001 12.699739
1.122 -16.966 -1.261 17.049755
1.035 -14.975 -1.089 15.050176
0.94800001 -13.163 -0.93300003 13.230032
1.011 -13.168 -0.93400002 13.239739
0.98900002 -12.391 -0.86799997 12.460675
1.0190001 -12.282 -0.85799998 12.35403
1.061 -12.323 -0.86199999 12.398592
1.105 -12.371 -0.86699998 12.450477
1.182 -12.362 -0.866 12.44854
1.239 -12.74 -0.89899999 12.831637
1.242 -12.374 -0.86799997 12.466429
1.278 -12.338 -0.86500001 12.434137
1.372 -12.48 -0.87800002 12.585852
1.408 -12.446 -0.87599999 12.555985
1.693 -14.72 -1.073 14.85584
1.456 -12.352 -0.86799997 12.467769
1.5140001 -12.504 -0.88200003 12.626168
1.8380001 -14.755 -1.077 14.907991
1.933 -14.757 -1.0779999 14.922051
1.689 -12.618 -0.89300001 12.761822
2.0209999 -14.886 -1.09 15.062056
1.79 -12.613 -0.89399999 12.770713
1.821 -12.554 -0.889 12.716496
2.4619999 -16.871 -1.1670001 17.089586
1.865 -12.312 -0.86900002 12.482738
1.8890001 -12.34 -0.87199998 12.514165
1.774 -11.138 -0.76800001 11.304509
1.8150001 -11.17 -0.77200001 11.342799
1.878 -11.331 -0.78600001 11.512439
1.901 -11.25 -0.77999997 11.436113
2.1500001 -12.469 -0.88700002 12.684054
2.1989999 -12.402 -0.88200003 12.626287
2.2249999 -12.322 -0.875 12.551809
2.171 -11.82 -0.83200002 12.046488
2.0940001 -11.208 -0.77899998 11.428514
2.303 -12.107 -0.85799998 12.353923
2.1889999 -11.226 -0.78200001 11.464131
2.336 -11.78 -0.83099997 12.0381
2.2249999 -11.044 -0.76700002 11.291982
2.267 -11.071 -0.76999998 11.326924
2.2679999 -10.903 -0.75599998 11.162024
2.2850001 -10.816 -0.74900001 11.080076
2.359 -10.913 -0.759 11.190824
2.4189999 -11.022 -0.76899999 11.3105
2.483 -11.142 -0.77999997 11.441934
2.4679999 -10.917 -0.76099998 11.218335
2.4960001 -10.882 -0.759 11.190354
2.5899999 -11.049 -0.77399999 11.374866
2.5799999 -10.856 -0.75800002 11.184083
2.6259999 -10.898 -0.76300001 11.235855
2.697 -11.037 -0.77600002 11.388211
2.7030001 -10.915 -0.76599997 11.270767
2.7409999 -10.848 -0.76099998 11.21478
2.77 -10.822 -0.759 11.196636
2.803 -10.809 -0.759 11.19229
2.8329999 -10.785 -0.75800002 11.176613
2.9089999 -10.798 -0.75999999 11.208777
2.9130001 -10.745 -0.75599998 11.158501
2.9619999 -10.791 -0.76099998 11.215982
2.9960001 -10.78 -0.76099998 11.214435
3.017 -10.728 -0.75700003 11.16984
3.1389999 -10.897 -0.77399999 11.366487
3.1500001 -10.807 -0.76700002 11.282821
3.1470001 -10.735 -0.76099998 11.212625
3.224 -10.868 -0.773 11.362444
3.2809999 -10.934 -0.77999997 11.442277
2.905 -9.4630003 -0.70899999 9.9242172
3.3410001 -10.768 -0.76800001 11.300528
2.9649999 -9.4460001 -0.70899999 9.925765
3.027 -9.5900002 -0.72299999 10.082339
3.3080001 -10.263 -0.79000002 10.811852
3.099 -9.5059996 -0.71799999 10.024138
3.2349999 -9.8219995 -0.75 10.368192
3.4860001 -10.42 -0.74299997 11.01275
3.552 -10.507 -0.75199997 11.116621
3.217 -9.4119997 -0.713 9.9721212
3.6059999 -10.45 -0.74900001 11.080015
3.2409999 -9.2919998 -0.704 9.8661518
3.609 -10.25 -0.79799998 10.896063
3.684 -10.307 -0.74000001 10.970584
3.6760001 -10.184 -0.79400003 10.856209
3.648 -10.008 -0.778 10.680509
3.642 -9.8929996 -0.76800001 10.570024
0 0 0 0
4.3340001 -11.541 -0.85900003 12.357837
3.5309999 -9.2729998 -0.71100003 9.9479647
3.8900001 -10.126 -0.796 10.876654
3.987 -10.281 -0.74699998 11.052291
3.6229999 -9.2510004 -0.71200001 9.9606266
4.0489998 -10.248 -0.74599999 11.044113
4.507 -11.246 -0.83999997 12.144594
0 0 0 0
4.2059999 -10.312 -0.75599998 11.162407
4.1960001 -10.196 -0.74699998 11.05092
3.7969999 -9.1420002 -0.70899999 9.9245176
6.323 -14.997 -1.198 16.319483
4.3649998 -10.285 -0.759 11.198684
4.8039999 -11.213 -0.84799999 12.2282
3.964 -9.1750002 -0.71799999 10.020452
4.0279999 -9.243 -0.72600001 10.108655
4.7189999 -10.692 -0.80400002 11.714703
3.9949999 -8.9720001 -0.70200002 9.8462992
4.0349998 -8.9870005 -0.70499998 9.8764582
4.836 -10.683 -0.80699998 11.754345
4.8179998 -10.565 -0.866 11.643981
4.1609998 -9.0389996 -0.71399999 9.9763336
0 0 0 0
4.506 -9.5950003 -0.773 10.628528
4.5240002 -9.5530005 -0.77100003 10.598152
4.5349998 -9.4989996 -0.76700002 10.553933
5.0609999 -10.514 -0.80199999 11.696201
5.132 -10.533 -0.80599999 11.74441
5.0560002 -10.305 -0.85399997 11.510234
5.0650001 -10.235 -0.78100002 11.44637
5.151 -10.245 -0.78500003 11.493871
5.2290001 -10.326 -0.86299998 11.606614
5.2909999 -10.4 -0.80199999 11.696062
5.237 -10.215 -0.78600001 11.506094
5.2670002 -10.195 -0.78500003 11.50198
5.3649998 -10.304 -0.79799998 11.644417
5.2179999 -9.8719997 -0.759 11.19196
5.2589998 -9.875 -0.76099998 11.213912
5.2870002 -9.8900003 -0.76300001 11.240402
5.2529998 -9.7519999 -0.75099999 11.10223
5.3309999 -9.7510004 -0.75400001 11.138676
5.3940001 -9.7910004 -0.75999999 11.204309
5.388 -9.7080002 -0.75300002 11.128469
5.421 -9.7329998 -0.75700003 11.166538
5.5380001 -9.7969999 -0.76599997 11.279956
5.6620002 -9.9420004 -0.78299999 11.467985
5.5580001 -9.6899996 -0.759 11.196586
5.592 -9.677 -0.75999999 11.202339
5.6329999 -9.6789999 -0.76200002 11.224721
5.4580002 -9.3120003 -0.79100001 10.822605
5.8610001 -9.8889999 -0.787 11.522284
5.9899998 -10.035 -0.80400002 11.714425
6.039 -10.053 -0.87699997 11.760165
5.9809999 -9.8780003 -0.792 11.574737
5.9899998 -9.823 -0.78799999 11.532232
6.0710001 -9.8509998 -0.79400003 11.598692
6.1079998 -9.842 -0.79500002 11.61054
6.0710001 -9.7150002 -0.78399998 11.482722
6.092 -9.6800003 -0.78200001 11.464136
6.0970001 -9.6210003 -0.778 11.416758
6.25 -9.7600002 -0.79500002 11.616889
6.6690001 -10.34 -0.85699999 12.333921
6.7129998 -10.336 -0.85799998 12.35449
6.777 -10.363 -0.86299998 12.412262
6.9809999 -10.601 -0.88999999 12.724294
6.9910002 -10.508 -0.884 12.65202
7.9380002 -11.845 -1.025 14.295682
7.993 -11.847 -1.028 14.328162
6.9159999 -10.187 -0.85699999 12.342628
6.9439998 -10.16 -0.85699999 12.336093
6.9559999 -10.109 -0.85399997 12.300696
6.9720001 -10.032 -0.84899998 12.246248
0 0 0 0
7.0510001 -10.011 -0.852 12.27447
9.2229996 -12.993 -1.169 15.976493
9.4709997 -13.24 -1.105 16.316202
7.2839999 -10.102 -0.87 12.484549
7.2950001 -10.052 -0.86699998 12.450358
7.3460002 -10.054 -0.86900002 12.482059
7.5100002 -10.211 -0.889 12.706492
7.723 -10.43 -0.91500002 13.01026
9.2440004 -12.354 -1.125 15.470569
7.7589998 -10.309 -0.90799999 12.934528
7.8060002 -10.303 -0.91000003 12.958146
7.8779998 -10.331 -0.91600001 13.024266
9.2950001 -12.102 -1.1109999 15.299992
9.0930004 -11.764 -1.077 14.907524
9.3219995 -11.943 -1.101 15.190363
9.2370005 -11.758 -1.084 14.991591
9.3170004 -11.784 -1.09 15.061781
9.5450001 -11.993 -1.117 15.368369
9.5710001 -11.872 -1.11 15.289884
9.7700005 -12.08 -1.135 15.577789
9.5640001 -11.75 -1.101 15.190287
9.5679998 -11.68 -1.097 15.138442
9.4940004 -11.516 -1.082 14.964125
9.4870005 -11.361 -1.071 14.839897
10.345 -12.335 -1.09 16.135654
10.389 -12.308 -1.091 16.143372
10.459 -12.312 -1.095 16.19182
10.413 -12.18 -1.085 16.061138
9.684 -11.199 -1.072 14.844078
9.6630001 -11.104 -1.064 14.758201
9.7250004 -11.14 -1.0700001 14.826332
9.7729998 -11.124 -1.072 14.846012
10.063 -11.309 -1.1 15.17786
9.651 -10.779 -1.043 14.50574
9.7559996 -10.827 -1.052 14.611986
9.9619999 -11.02 -1.076 14.894281
9.8730001 -10.785 -1.056 14.659724
9.8050003 -10.645 -1.043 14.510062
9.7939997 -10.566 -1.0369999 14.444312
11.235 -12.039 -1.215 16.511782
10.086 -10.778 -1.068 14.799774
10 -10.553 -1.049 14.576221
9.7670002 -10.243 -1.016 14.189631
9.5229998 -9.9259996 -0.98100001 13.790407
9.6049995 -9.9490004 -0.98799998 13.864154
9.5419998 -9.8210001 -0.97600001 13.727869
9.7620001 -9.9519997 -0.99699998 13.976156
11.011 -11.152 -1.146 15.713769
10.056 -10.124 -1.026 14.306334
11.066 -11.067 -1.1440001 15.69215
10.16 -10.101 -1.031 14.3638
10.138 -9.9849997 -1.022 14.266174
10.005 -9.7930002 -1.003 14.035986
10.033 -9.7580004 -1.002 14.031524
11.514 -11.123 -1.175 16.052225
10.033 -9.6359997 -0.995 13.946455
12.309 -11.696 -1.161 17.019278
10.501 -9.927 -1.041 14.487926
12.14 -11.39 -1.1339999 16.685253
12.247 -11.419 -1.142 16.783525
12.407 -11.496 -1.156 16.953701
12.098 -11.138 -1.118 16.482311
12.021 -10.973 -1.198 16.320122
12.064 -10.932 -1.105 16.317776
11.913 -10.727 -1.085 16.067524
11.926 -10.671 -1.0829999 16.039719
12.183 -10.833 -1.107 16.340282
12.225 -10.802 -1.108 16.351192
12.3 -10.766 -1.11 16.383799
12.313 -10.709 -1.108 16.356049
12.714 -10.988 -1.147 16.843323
12.881 -11.063 -1.161 17.019344
12.86 -10.974 -1.155 16.945272
11.844 -10.021 -1.133 15.55585
11.22 -9.4350004 -1.059 14.697928
11.529 -9.6309996 -1.09 15.061942
11.659 -9.6780005 -1.102 15.192446
13.066 -10.766 -1.1569999 16.969553
11.634 -9.5039997 -1.09 15.062007
11.642 -9.4499998 -1.0880001 15.034041
11.802 -9.5179996 -1.102 15.201774
11.821 -9.4119997 -1.098 15.150161
11.922 -9.4309998 -1.1059999 15.241426
11.934 -9.4099998 -1.105 15.237764
11.75 -9.2060003 -1.082 14.966084
11.932 -9.2869997 -1.099 15.160106
11.993 -9.2150002 -1.099 15.164303
11.831 -9.0319996 -1.079 14.9236
12.033 -9.1260004 -1.097 15.142007
12.057 -9.1140003 -1.098 15.153938
11.756 -8.7720003 -1.0599999 14.706295
11.724 -8.691 -1.054 14.632039
11.579 -8.5279999 -1.035 14.417742
11.611 -8.4949999 -1.036 14.424065
11.638 -8.4309998 -1.034 14.408121
12.497 -8.9910002 -1.122 15.436061
12.001 -8.5780001 -1.067 14.790017
12.101 -8.5930004 -1.075 14.880507
12.09 -8.5279999 -1.071 14.833811
12.055 -8.4469995 -1.064 14.758284
12.298 -8.5299997 -1.086 15.006036
12.224 -8.4230003 -1.075 14.883842
12.221 -8.3640003 -1.072 14.847845
12.173 -8.276 -1.064 14.758259
13.17 -8.8500004 -1.072 15.903478
12.561 -8.3950005 -1.098 15.147949
12.872 -8.5430002 -1.127 15.49004
12.925 -8.5200005 -1.13 15.521692
12.927 -8.4630003 -1.127 15.491928
13.354 -8.6730003 -1.076 15.959575
13.435 -8.665 -1.082 16.023487
13.496 -8.6149998 -1.0829999 16.04784
13.09 -8.309 -1.132 15.545707
13.216 -8.3299999 -1.142 15.663835
13.69 -8.5579996 -1.094 16.18185
13.662 -8.4820004 -1.089 16.117706
13.69 -8.4099998 -1.0880001 16.103662
13.737 -8.3789997 -1.09 16.127645
13.467 -8.1660004 -1.153 15.791551
13.494 -8.125 -1.153 15.79345
13.556 -8.1040001 -1.1569999 15.835991
13.806 -8.1560001 -1.085 16.071814
12.978 -7.6220002 -1.0930001 15.090329
12.939 -7.5450001 -1.087 15.017534
13.939 -8.0579996 -1.091 16.137451
12.962 -7.4499998 -1.084 14.989697
13.006 -7.3940001 -1.085 15.00015
13.245 -7.474 -1.1059999 15.248407
13.348 -7.4770002 -1.114 15.340001
13.321 -7.4070001 -1.109 15.2821
13.311 -7.3470001 -1.1059999 15.244159
13.576 -7.382 -1.127 15.494252
13.417 -7.2680001 -1.1109999 15.299478
13.345 -7.1750002 -1.102 15.191579
13.415 -7.1589999 -1.1059999 15.245876
13.702 -7.2010002 -1.13 15.520184
14.763 -7.7490001 -1.137 16.711849
14.82 -7.691 -1.138 16.735558
14.836 -7.6389999 -1.138 16.725916
14.842 -7.5840001 -1.136 16.706062
14.818 -7.513 -1.132 16.652319
15.223 -7.599 -1.164 17.054014
14.63 -7.2810001 -1.204 16.385954
14.683 -7.25 -1.207 16.4198
14.838 -7.2610002 -1.124 16.557528
15.029 -7.296 -1.1390001 16.745142
15.032 -7.1810002 -1.135 16.697784
14.448 -6.8449998 -1.082 16.024027
14.361 -6.776 -1.073 15.915522
14.409 -6.744 -1.075 15.945421
14.526 -6.6880002 -1.082 16.028248
14.575 -6.6550002 -1.084 16.059099
14.754 -6.6810002 -1.098 16.233356
14.772 -6.6609998 -1.099 16.241573
14.6 -6.5279999 -1.082 16.02952
14.772 -6.494 -1.094 16.173462
14.909 -6.4990001 -1.104 16.301353
15.976 -6.9060001 -1.1950001 17.445728
15.369 -6.586 -1.14 16.75951
16.129999 -6.8239999 -1.204 17.555441
16.374001 -6.8670001 -1.223 17.797733
16.337999 -6.7909999 -1.2180001 17.735035
16.273001 -6.704 -1.211 17.641447
16.431 -6.7090001 -1.223 17.790001
16.473 -6.6360002 -1.224 17.801527
16.487 -6.5809999 -1.223 17.794001
16.386999 -6.4809999 -1.2130001 17.663761
16.555 -6.4879999 -1.225 17.823097
16.472 -6.3959999 -1.217 17.712049
16.75 -6.4439998 -1.239 17.989519
16.750999 -6.3530002 -1.2359999 17.957848
16.691999 -6.2709999 -1.229 17.873407
16.669001 -6.2030001 -1.226 17.827951
16.747999 -6.1719999 -1.2309999 17.891462
16.870001 -6.158 -1.24 18.001541
16.959 -6.0999999 -1.245 18.065649
17.025 -6.0630002 -1.249 18.115479
17.07 -6.0190001 -1.251 18.14327
17.339001 -6.053 -1.272 18.409174
17.24 -5.9569998 -1.262 18.283766
17.306999 -5.9200001 -1.266 18.335249
17.278 -5.8189998 -1.262 18.275192
17.309999 -5.7690001 -1.263 18.289686
17.490999 -5.7690001 -1.277 18.462048
17.528999 -5.7210002 -1.278 18.483208
17.57 -5.6729999 -1.28 18.507463
17.739 -5.6360002 -1.2920001 18.657595
17.785 -5.5890002 -1.295 18.687433
17.802999 -5.533 -1.295 18.687908
17.864 -5.4910002 -1.298 18.733885
18.004999 -5.4099998 -1.307 18.845592
17.997999 -5.3779998 -1.306 18.82967
18.084999 -5.342 -1.312 18.903055
18.195999 -5.3130002 -1.3200001 19.001703
18.033001 -5.2030001 -1.3049999 18.813913
18.271999 -5.1490002 -1.322 19.029604
18.378 -5.1469998 -1.33 19.131424
18.488001 -5.1160002 -1.3380001 19.229403
18.559999 -5.073 -1.3430001 19.287626
18.645 -4.9710002 -1.347 19.34325
18.552999 -4.8839998 -1.3380001 19.23168
18.767 -4.8769999 -1.355 19.43763
18.660999 -4.8179998 -1.345 19.319809
18.774 -4.7849998 -1.353 19.421377
18.870001 -4.6830001 -1.359 19.489851
18.969 -4.645 -1.3660001 19.577154
18.899 -4.5640001 -1.359 19.489721
18.976 -4.552 -1.365 19.562016
19.021 -4.4359999 -1.3660001 19.579134
19.051001 -4.3800001 -1.367 19.595757
19.162001 -4.342 -1.375 19.695833
19.202 -4.2880001 -1.377 19.72308
19.257999 -4.2379999 -1.381 19.767103
19.264999 -4.1440001 -1.38 19.75392
19.408001 -4.1110001 -1.391 19.887325
19.403 -4.046 -1.3890001 19.868967
19.441 -3.9909999 -1.391 19.895111
19.549999 -3.9489999 -1.399 19.993856
19.652 -3.8740001 -1.406 20.079487
19.629 -3.8050001 -1.403 20.043554
19.746 -3.7639999 -1.4119999 20.151079
19.811001 -3.711 -1.416 20.205256
19.907 -3.665 -1.423 20.291519
19.875 -3.5940001 -1.419 20.247124
19.884001 -3.4990001 -1.419 20.239319
19.936001 -3.444 -1.4220001 20.281208
20.061001 -3.401 -1.431 20.397509
20.062 -3.336 -1.431 20.387754
20.125 -3.2820001 -1.4349999 20.441292
20.190001 -3.1949999 -1.439 20.491823
20.245001 -3.138 -1.443 20.53751
20.164 -3.0610001 -1.4349999 20.445436
20.198999 -3.0009999 -1.437 20.471212
20.205 -2.937 -1.437 20.467852
20.469999 -2.911 -1.4579999 20.727289
20.542999 -2.822 -1.4630001 20.78747
20.504 -2.7509999 -1.459 20.739111
20.632999 -2.7030001 -1.469 20.861084
20.662001 -2.641 -1.47 20.881907
20.705 -2.5469999 -1.473 20.91301
20.502001 -2.457 -1.456 20.69997
20.788 -2.425 -1.478 20.981089
20.804001 -2.3610001 -1.479 20.989717
20.783001 -2.2920001 -1.477 20.961105
20.889 -2.171 -1.484 21.053879
20.809 -2.1300001 -1.477 20.969809
20.914 -2.0739999 -1.485 21.068985
20.77 -1.994 -1.473 20.917425
20.705 -1.8559999 -1.467 20.839718
20.927 -1.8099999 -1.484 21.057486
21.037001 -1.7869999 -1.493 21.165485
11.263 -0.89399999 -0.76999998 11.324632
11.264 -0.85900003 -0.76999998 11.322918
11.296 -0.82499999 -0.773 11.352434
21.062 -1.456 -1.493 21.164989
21.136 -1.428 -1.499 21.237152
21.018999 -1.353 -1.489 21.115067
21.099001 -1.226 -1.495 21.187401
21.004999 -1.154 -1.487 21.089165
21.218 -1.099 -1.5039999 21.29961
21.146 -1.028 -1.497 21.223833
20.948 -0.986 -1.4809999 21.023422
21.101 -0.86000001 -1.493 21.171227
20.863001 -0.78500003 -1.474 20.929731
20.849001 -0.71799999 -1.473 20.9133
20.802999 -0.65100002 -1.469 20.86496
20.993999 -0.55800003 -1.484 21.05378
20.934999 -0.491 -1.479 20.992922
21.042999 -0.428 -1.488 21.099886
21.02 -0.361 -1.4859999 21.075552
20.919001 -0.29300001 -1.477 20.973124
19.882999 -0.215 -1.3940001 19.932966
19.851999 -0.121 -1.392 19.90111
19.903999 -0.059 -1.396 19.952982
19.962 0.003 -1.401 20.011103
19.964001 0.066 -1.401 20.013208
19.023001 0.124 -1.325 19.069492
19.514999 0.18799999 -1.365 19.563583
19.427999 0.27900001 -1.358 19.477402
19.615 0.34299999 -1.373 19.665985
19.579 0.40400001 -1.37 19.631031
19.518 0.46399999 -1.365 19.571173
19.601999 0.52700001 -1.372 19.657022
19.629999 0.62099999 -1.375 19.687893
19.315001 0.67199999 -1.349 19.373711
19.392 0.73500001 -1.3559999 19.453243
19.351999 0.79500002 -1.353 19.415522
19.527 0.86299998 -1.367 19.593805
19.479 0.95300001 -1.364 19.54994
19.408001 1.011 -1.358 19.481705
19.559999 1.08 -1.3710001 19.637709
19.636 1.146 -1.377 19.717554
19.542999 1.2029999 -1.37 19.627861
19.483 1.26 -1.365 19.57136
19.566 1.358 -1.373 19.66107
19.548 1.419 -1.3710001 19.647329
19.162001 1.452 -1.341 19.263666
19.1 1.508 -1.336 19.205963
19.287001 1.614 -1.352 19.401581
19.039 1.653 -1.332 19.156986
19.155001 1.724 -1.342 19.27919
19.15 1.784 -1.342 19.27968
19.4 1.869 -1.363 19.537424
19.503 2.0020001 -1.372 19.653433
19.549 2.0380001 -1.376 19.703051
19.638 2.109 -1.3839999 19.799355
19.761999 2.1849999 -1.3940001 19.931234
19.891001 2.326 -1.406 20.075832
20.004 2.4030001 -1.415 20.197441
20.094999 2.4460001 -1.423 20.29327
20.195999 2.5220001 -1.432 20.403173
19.781 2.5969999 -1.4 19.999809
19.523001 2.6259999 -1.3789999 19.747026
19.805 2.727 -1.403 20.041033
19.593 2.7609999 -1.386 19.835064
19.705999 2.8080001 -1.396 19.953949
19.721001 2.937 -1.399 19.987522
19.777 3.0079999 -1.404 20.053654
19.562 3.039 -1.387 19.845179
19.872 3.151 -1.413 20.169823
20.389999 3.3310001 -1.457 20.711603
20.318001 3.385 -1.452 20.649157
20.363001 3.4579999 -1.456 20.705784
20.184999 3.493 -1.442 20.535692
20.292999 3.5769999 -1.452 20.656937
20.533001 3.6860001 -1.473 20.913164
21.041 3.8789999 -1.516 21.449209
21.129 3.964 -1.524 21.551577
21.214001 4.0479999 -1.5319999 21.65103
21.372 4.1479998 -1.546 21.825636
21.169001 4.178 -1.53 21.631533
21.681 4.3839998 -1.574 22.175724
21.879999 4.4959998 -1.591 22.393742
22.033001 4.5999999 -1.605 22.56522
22.165001 4.6999998 -1.617 22.715456
22.823 4.9130001 -1.6720001 23.405609
23.188999 5.0679998 -1.7029999 23.797363
23.159 5.1760001 -1.7029999 23.791395
23.146 5.2490001 -1.7029999 23.794737
23.105 5.316 -1.701 23.769608
23.101 5.3920002 -1.702 23.782907
23.082001 5.4640002 -1.702 23.780891
23.054001 5.572 -1.702 23.778791
23.058001 5.6500001 -1.704 23.801208
23.031 5.7199998 -1.7029999 23.791712
23.018 5.7940001 -1.7029999 23.797037
22.983 5.862 -1.702 23.779783
22.927999 5.9629998 -1.7 23.751644
22.895 6.0310001 -1.699 23.736904
22.882 6.105 -1.699 23.743284
22.870001 6.1789999 -1.7 23.750937
22.804001 6.3150001 -1.697 23.723017
22.809999 6.355 -1.699 23.739603
22.767 6.4200001 -1.697 23.71566
22.746 6.4920001 -1.697 23.715109
22.73 6.5640001 -1.697 23.719587
22.655001 6.697 -1.694 23.684774
22.660999 6.776 -1.697 23.713179
22.639 6.8080001 -1.696 23.701258
22.615999 6.8790002 -1.696 23.699799
22.580999 7.0240002 -1.696 23.708954
22.538 7.0879998 -1.6950001 23.687006
22.523001 7.1609998 -1.6950001 23.694695
22.503 7.1939998 -1.694 23.685614
22.48 7.2639999 -1.694 23.685137
22.434 7.4060001 -1.694 23.685497
22.403 7.473 -1.694 23.677198
22.421 7.5580001 -1.697 23.721392
22.416 7.6350002 -1.699 23.741461
22.438 7.7600002 -1.704 23.803047
22.462999 7.848 -1.7079999 23.855705
22.451 7.9229999 -1.709 23.869268
22.469 8.0089998 -1.7130001 23.915152
22.472 8.0889997 -1.715 23.945019
22.483999 8.2139997 -1.72 23.999132
22.5 8.2989998 -1.723 24.043547
22.504999 8.382 -1.726 24.077209
22.507 8.4630003 -1.728 24.107536
22.51 8.5450001 -1.7309999 24.13946
22.538 8.677 -1.737 24.21299
22.552 8.7639999 -1.74 24.257534
22.537001 8.8400002 -1.7410001 24.27124
22.565001 8.9320002 -1.7460001 24.331223
22.552999 9.0100002 -1.748 24.348991
22.573 9.1000004 -1.752 24.401226
22.589001 9.2299995 -1.757 24.465136
22.584 9.3109999 -1.7589999 24.491341
22.601 9.401 -1.763 24.541641
22.591 9.4809999 -1.765 24.563343
22.605 9.5699997 -1.768 24.610905
22.631001 9.7069998 -1.775 24.688837
22.634001 9.7919998 -1.778 24.72534
22.636 9.8780003 -1.78 24.761497
22.677999 9.9809999 -1.7869999 24.841606
22.681 10.067 -1.79 24.879234
22.726 10.173 -1.7970001 24.963778
22.398001 10.153 -1.772 24.655502
22.055 10.082 -1.745 24.312853
22.002001 10.141 -1.743 24.289215
22.084 10.263 -1.753 24.415266
22.048 10.331 -1.752 24.411337
21.965 10.419 -1.749 24.373671
21.891001 10.468 -1.7460001 24.327833
21.841 10.529 -1.744 24.309065
21.771999 10.58 -1.7410001 24.269064
21.639 10.684 -1.735 24.195131
21.608 10.711 -1.734 24.179289
21.546 10.764 -1.7309999 24.147259
21.503 10.828 -1.7309999 24.137543
21.445999 10.883 -1.728 24.111338
21.337999 10.998 -1.725 24.067444
21.283001 11.012 -1.722 24.024895
21.231001 11.07 -1.72 24.005388
21.17 11.123 -1.7180001 23.975853
21.087 11.249 -1.716 23.961348
21.046 11.312 -1.716 23.95496
21.023001 11.342 -1.716 23.94895
20.986 11.407 -1.715 23.947298
20.934 11.465 -1.714 23.929405
20.839001 11.583 -1.712 23.903154
20.795 11.645 -1.711 23.894888
20.743 11.701 -1.71 23.876966
20.721001 11.732 -1.709 23.873005
20.632999 11.854 -1.7079999 23.856974
20.586 11.913 -1.707 23.84569
20.534 11.969 -1.706 23.828817
20.485001 12.027 -1.705 23.815773
20.443001 12.046 -1.7029999 23.789127
20.150999 12.045 -1.683 23.53672
20.112 12.108 -1.682 23.535618
20.075001 12.172 -1.683 23.537113
20.172001 12.317 -1.6950001 23.695805
19.254 11.841 -1.612 22.661076
19.098 11.87 -1.603 22.543295
19.069 11.935 -1.604 22.553133
19.125999 12.054 -1.613 22.665051
19.073 12.105 -1.6109999 22.647421
0 0 0 0
19.856001 12.776 -1.693 23.671782
19.832001 12.893 -1.697 23.715343
19.808001 12.966 -1.698 23.735146
19.782 13.038 -1.7 23.753042
19.753 13.108 -1.701 23.7675
19.936001 13.319 -1.723 24.037651
0 0 0 0
14.885 10.123 -1.243 18.04393
14.749 10.098 -1.233 17.917112
14.553 10.032 -1.217 17.71756
14.39 9.9870005 -1.204 17.557388
14.065 9.8599997 -1.177 17.217117
13.901 9.8100004 -1.164 17.053703
13.749 9.7690001 -1.152 16.905487
13.574 9.7089996 -1.138 16.727617
13.425 9.6669998 -1.126 16.581598
13.269 9.618 -1.114 16.425995
12.993 9.5120001 -1.091 16.139593
12.851 9.4700003 -1.08 15.999859
12.747 9.4460001 -1.163 15.908032
12.617 9.4099998 -1.152 15.781757
12.351 9.3030005 -1.128 15.503722
12.224 9.2670002 -1.118 15.380292
12.082 9.2189999 -1.105 15.237641
11.962 9.1859999 -1.096 15.121946
11.846 9.1569996 -1.086 15.01192
11.589 9.0749998 -1.064 14.757799
11.488 9.0240002 -1.0549999 14.646492
11.372 8.9899998 -1.045 14.533909
11.256 8.9560003 -1.036 14.421538
11.029 8.8889999 -1.017 14.201671
10.915 8.8529997 -1.007 14.089956
10.83 8.8120003 -0.99900001 13.997794
10.718 8.7770004 -0.99000001 13.888534
10.509 8.7159996 -0.97299999 13.687749
10.402 8.6829996 -0.96399999 13.584012
10.305 8.6560001 -0.95599997 13.491972
10.2 8.6230001 -0.94700003 13.390031
10.106 8.5710001 -0.93800002 13.284318
9.9960003 8.5860004 -0.93199998 13.21015
9.9420004 8.5939999 -0.92900002 13.17434
9.8629999 8.5790005 -0.92299998 13.104577
9.7639999 8.5469999 -0.91399997 13.008548
9.5939999 8.4779997 -0.89999998 12.834769
9.5059996 8.4530001 -0.89300001 12.752047
9.4160004 8.4259996 -0.88499999 12.66656
9.3210001 8.3940001 -0.87699997 12.574156
9.2390003 8.3719997 -0.87099999 12.498325
9.1479998 8.342 -0.86299998 12.410465
8.9969997 8.2819996 -0.85000002 12.25806
8.9160004 8.2589998 -0.84399998 12.182713
8.8269997 8.2279997 -0.83600003 12.096066
8.743 8.2010002 -0.829 12.015976
8.6680002 8.1820002 -0.824 11.948152
8.5229998 8.1210003 -0.81099999 11.800419
8.4370003 8.0900002 -0.80400002 11.716548
8.3660002 8.0719995 -0.79799998 11.652637
8.2849998 8.0439997 -0.792 11.574732
8.2180004 8.0290003 -0.787 11.516065
8.1409998 8.0030003 -0.77999997 11.442564
8.0139999 7.9530001 -0.76999998 11.316683
7.9310002 7.9200001 -0.76200002 11.234225
7.8730001 7.9109998 -0.75800002 11.186716
7.79 7.8769999 -0.75099999 11.103839
7.671 7.8299999 -0.741 10.986456
7.559 7.7880001 -0.79699999 10.882401
7.5019999 7.7540002 -0.79100001 10.81805
7.4289999 7.7270002 -0.78399998 10.747615
7.3709998 7.7150002 -0.77999997 10.698657
7.237 7.671 -0.76800001 10.573941
7.1799998 7.6589999 -0.764 10.525986
7.1259999 7.6259999 -0.75800002 10.464718
7.0619998 7.6059999 -0.75300002 10.406252
6.973 7.5580001 -0.74400002 10.310171
6.8239999 7.4899998 -0.73000002 10.158738
6.7750001 7.4829998 -0.727 10.120496
6.737 7.4660001 -0.72299999 10.082214
6.6539998 7.4200001 -0.71499997 9.9921637
6.5549998 7.4039998 -0.708 9.9140558
0 0 0 0
6.4460001 7.3730001 -0.699 9.8183832
6.4359999 7.408 -0.70099998 9.8382902
6.3909998 7.381 -0.69599998 9.7881794
6.2719998 7.336 -0.68599999 9.6760254
6.217 7.3179998 -0.68199998 9.6264915
6.1820002 7.3239999 -0.68000001 9.6083555
6.1090002 7.2839999 -0.67299998 9.5304499
6.0689998 7.283 -0.67000002 9.5038805
5.973 7.237 -0.662 9.406867
5.9400001 7.243 -0.66000003 9.3904333
5.8740001 7.2090001 -0.65399998 9.3220854
5.8260002 7.197 -0.64999998 9.2823267
5.7820001 7.1890001 -0.64700001 9.2483435
5.6950002 7.1490002 -0.639 9.1623983
5.6329999 7.1170001 -0.63300002 9.0985203
5.5970001 7.118 -0.63099998 9.0769215
5.5339999 7.0840001 -0.625 9.0110397
5.5040002 7.092 -0.62400001 8.9988813
5.4400001 7.0549998 -0.61799997 8.9302044
5.3569999 7.0159998 -0.61000001 8.8483782
5.3210001 7.0139999 -0.60799998 8.8249025
5.2649999 6.9860001 -0.60299999 8.7685823
5.2319999 6.9879999 -0.60100001 8.7502661
5.1789999 6.9629998 -0.597 8.6983795
5.145 6.9640002 -0.59500003 8.6788454
5.0650001 6.9239998 -0.588 8.598938
5.0159998 6.902 -0.583 8.5520611
4.9910002 6.9130001 -0.583 8.5463171
4.9289999 6.8720002 -0.57599998 8.4765091
4.9050002 6.8850002 -0.57599998 8.4731359
4.8260002 6.8429999 -0.56900001 8.3928947
4.7750001 6.816 -0.56400001 8.3412571
4.744 6.8169999 -0.56199998 8.3242331
4.6950002 6.7930002 -0.55800003 8.2764273
4.6729999 6.8060002 -0.55800003 8.2746563
4.619 6.7820001 -0.60600001 8.2278748
4.5840001 6.777 -0.60299999 8.2039251
4.5219998 6.7529998 -0.59799999 8.1491776
4.4840002 6.7410002 -0.59500003 8.1179657
4.441 6.7220001 -0.59100002 8.0781832
4.4070001 6.717 -0.58899999 8.0552254
4.3769999 6.7160001 -0.58700001 8.0378704
4.3130002 6.6859999 -0.58099997 7.9776015
4.2649999 6.658 -0.57599998 7.9278598
4.237 6.6589999 -0.57499999 7.9136004
4.197 6.6420002 -0.57099998 7.8776274
4.1230001 6.618 -0.56599998 7.8177624
4.1059999 6.612 -0.56400001 7.8035812
4.0669999 6.5960002 -0.56099999 7.7693262
4.0380001 6.5960002 -0.55900002 7.7540402
3.997 6.5739999 -0.55500001 7.7137222
3.9289999 6.5549998 -0.55000001 7.662086
3.9089999 6.5440001 -0.54799998 7.6422853
3.8729999 6.5300002 -0.54500002 7.6117053
3.8380001 6.5180001 -0.54299998 7.5834966
3.7750001 6.5040002 -0.53799999 7.5393691
3.7360001 6.4829998 -0.53500003 7.5015469
3.7049999 6.4759998 -0.53200001 7.4798808
3.6860001 6.4660001 -0.53100002 7.46175
3.619 6.4419999 -0.52499998 7.4075737
3.5940001 6.4450002 -0.52399999 7.3979349
3.5539999 6.4200001 -0.51999998 7.3564744
3.5239999 6.4130001 -0.51800001 7.3357668
3.49 6.3979998 -0.51499999 7.3061433
3.4400001 6.3779998 -0.51099998 7.264544
3.411 6.3720002 -0.50999999 7.2455096
3.375 6.3509998 -0.50599998 7.2098446
3.349 6.3509998 -0.505 7.1976399
3.323 6.3499999 -0.50400001 7.1846256
3.27 6.3210001 -0.49900001 7.1342092
3.243 6.3169999 -0.49700001 7.1181841
3.2090001 6.2989998 -0.49399999 7.086545
3.1830001 6.296 -0.493 7.0720687
3.152 6.2849998 -0.49000001 7.048151
3.122 6.2729998 -0.48800001 7.0239272
3.072 6.2470002 -0.48300001 6.9782147
3.0450001 6.2399998 -0.48199999 6.9600248
3.02 6.2389998 -0.47999999 6.9480872
2.9920001 6.23 -0.479 6.9277997
2.9649999 6.224 -0.477 6.9106388
2.938 6.217 -0.47499999 6.8926449
2.895 6.2020001 -0.472 6.8606572
2.8670001 6.1929998 -0.47 6.8406024
2.836 6.1760001 -0.46700001 6.8120456
2.8069999 6.1630001 -0.465 6.7880812
2.766 6.1490002 -0.46200001 6.7582841
2.733 6.1290002 -0.45899999 6.7264118
2.7079999 6.1230001 -0.45699999 6.7106814
2.6849999 6.1240001 -0.456 6.7022786
2.655 6.1069999 -0.454 6.674623
2.6059999 6.098 -0.45100001 6.646822
2.592 6.0910001 -0.44999999 6.6348505
2.5580001 6.0640001 -0.44600001 6.5965433
2.5369999 6.066 -0.44499999 6.5902009
2.4890001 6.0599999 -0.44299999 6.5661988
2.4590001 6.0450001 -0.48100001 6.5437045
2.4319999 6.0320001 -0.479 6.5214334
2.4059999 6.0229998 -0.477 6.5032983
2.381 6.0159998 -0.47499999 6.4874525
2.3380001 5.9879999 -0.47099999 6.4454813
2.3169999 5.9899998 -0.47 6.4396806
2.2909999 5.98 -0.46799999 6.4209113
2.2650001 5.9689999 -0.46599999 6.4012766
2.244 5.9689999 -0.465 6.3938036
2.204 5.9489999 -0.46200001 6.3609481
2.181 5.9429998 -0.461 6.3473244
2.1600001 5.9429998 -0.46000001 6.3400669
2.1329999 5.927 -0.45699999 6.3156843
2.112 5.928 -0.45699999 6.3095622
2.0869999 5.9159999 -0.45500001 6.2898049
2.049 5.8969998 -0.45100001 6.2591062
2.0250001 5.8889999 -0.44999999 6.2436724
2.0039999 5.888 -0.449 6.235877
1.98 5.8790002 -0.447 6.2195539
1.959 5.8769999 -0.44600001 6.2109361
1.9220001 5.8579998 -0.44299999 6.1811399
1.899 5.8509998 -0.442 6.1673145
1.877 5.8460002 -0.44100001 6.1557555
1.853 5.835 -0.43900001 6.1378789
1.832 5.8309999 -0.43799999 6.1276937
1.8099999 5.823 -0.43599999 6.113389
1.777 5.8169999 -0.435 6.0979047
1.753 5.803 -0.433 6.0774426
1.734 5.8049998 -0.43200001 6.0738292
1.712 5.7989998 -0.43099999 6.0617738
1.688 5.783 -0.42899999 6.0395756
1.655 5.7719998 -0.42699999 6.0197453
1.631 5.756 -0.42399999 5.997622
1.612 5.757 -0.42399999 5.9934435
1.59 5.7490001 -0.42199999 5.9797316
1.567 5.7389998 -0.421 5.9639626
1.546 5.7319999 -0.419 5.9515967
1.516 5.7259998 -0.41800001 5.9380178
1.492 5.7090001 -0.41600001 5.9153867
1.474 5.7140002 -0.41600001 5.9157023
1.45 5.697 -0.41299999 5.8931217
1.4119999 5.697 -0.412 5.8838167
1.396 5.6700001 -0.40900001 5.853631
1.376 5.665 -0.40799999 5.843977
