# .PCD v0.7 - Point Cloud Data file format
VERSION 0.7
FIELDS x y z intensity
SIZE 4 4 4 4
TYPE F F F F
COUNT 1 1 1 1
WIDTH 1294
HEIGHT 1
VIEWPOINT 0 0 0 1 0 0 0
POINTS 1294
DATA ascii
-2.2190001 -5.2740002 -0.36199999 5.7332435
-2.1240001 -5.0910001 -0.34099999 5.5268378
-2.138 -5.171 -0.34900001 5.6064324
-2.158 -5.2690001 -0.359 5.7051034
-1.985 -4.9289999 -0.32100001 5.3233738
-1.911 -4.777 -0.33700001 5.1560855
-1.988 -5.0120001 -0.36300001 5.404078
-1.951 -4.9629998 -0.35600001 5.3445768
-1.923 -4.961 -0.35499999 5.3324924
-1.903 -4.9720001 -0.322 5.3334675
-1.97 -5.1989999 -0.34599999 5.570477
-1.7920001 -4.7589998 -0.331 5.0959692
0 0 0 0
0 0 0 0
-1.745 -4.7940001 -0.33199999 5.1125031
-1.696 -4.7059999 -0.322 5.0126376
-1.714 -4.8010001 -0.33199999 5.108583
-1.635 -4.6279998 -0.31200001 4.9182262
-1.6160001 -4.6220002 -0.31099999 4.9062271
-1.598 -4.6409998 -0.31200001 4.9183154
-1.6109999 -4.7249999 -0.32100001 5.002398
-1.577 -4.6729999 -0.315 4.9419713
-1.538 -4.6090002 -0.30700001 4.8685293
-1.525 -4.6170001 -0.30700001 4.8720183
-1.543 -4.743 -0.31999999 4.9979296
-1.482 -4.6059999 -0.30500001 4.8481526
-1.465 -4.6030002 -0.30399999 4.8400674
-1.512 -4.8010001 -0.32499999 5.0439439
-1.466 -4.7090001 -0.315 4.9419694
-1.418 -4.6329999 -0.30599999 4.8547964
-1.4 -4.6259999 -0.30399999 4.8427567
-1.38 -4.6129999 -0.30199999 4.8244557
-1.37 -4.632 -0.30399999 4.839911
-1.476 -5.099 -0.354 5.3201218
-1.528 -5.3340001 -0.345 5.5592594
-1.306 -4.6009998 -0.29899999 4.7921014
-1.289 -4.598 -0.29800001 4.7845511
-1.283 -4.631 -0.301 4.8148575
-1.253 -4.6350002 -0.301 4.8108044
-1.251 -4.6560001 -0.303 4.8306465
-1.392 -5.2600002 -0.33399999 5.451314
-1.219 -4.6560001 -0.30199999 4.8223958
-1.206 -4.665 -0.303 4.8278842
-1.199 -4.7600002 -0.31200001 4.918592
-1.179 -4.7420001 -0.31 4.896193
-1.163 -4.7090001 -0.30599999 4.8601327
-1.192 -4.8909998 -0.32499999 5.0446377
-1.112 -4.6950002 -0.303 4.8343954
-1.104 -4.7249999 -0.30599999 4.8619003
-1.0880001 -4.7249999 -0.30599999 4.8582921
-1.062 -4.6469998 -0.29699999 4.776051
-1.0549999 -4.6820002 -0.301 4.8088202
-2.1329999 -9.71 -0.65399998 9.963007
-1.13 -5.2220001 -0.324 5.3526778
-1.127 -5.2859998 -0.33000001 5.4148703
-0.98400003 -4.7129998 -0.30199999 4.8240881
-0.97000003 -4.684 -0.29899999 4.7927194
-0.93699998 -4.6700001 -0.29699999 4.7723246
-0.921 -4.665 -0.296 4.7642503
-0.96399999 -4.961 -0.32699999 5.0643606
-0.99900001 -5.2059999 -0.31999999 5.3106341
-0.97899997 -5.25 -0.35699999 5.3524189
0 0 0 0
-0.85600001 -4.7690001 -0.30599999 4.854867
-0.84399998 -4.789 -0.30700001 4.8724847
-0.80800003 -4.6719999 -0.29499999 4.7505236
-0.79500002 -4.6859999 -0.296 4.762167
-0.77399999 -4.6919999 -0.296 4.7646151
-0.833 -5.1399999 -0.34299999 5.2183461
-0.74199998 -4.6810002 -0.294 4.7485538
-0.73500001 -4.7319999 -0.30000001 4.7981296
-0.73799998 -4.8470001 -0.31200001 4.9127789
-0.73000002 -4.9499998 -0.322 5.0138888
-0.75300002 -5.21 -0.34900001 5.2756906
-0.699 -4.9549999 -0.322 5.01441
-0.64200002 -4.6659999 -0.29100001 4.7189407
-0.66799998 -4.9569998 -0.322 5.0121608
-0.60699999 -4.684 -0.29300001 4.7322459
-0.597 -4.7199998 -0.296 4.7668042
-0.58600003 -4.7529998 -0.30000001 4.7983751
-0.56599998 -4.7129998 -0.29499999 4.7560225
-0.59299999 -5.0570002 -0.331 5.1023974
-0.54100001 -4.8260002 -0.30700001 4.8659229
-0.52499998 -4.8140001 -0.30500001 4.8521385
-0.56999999 -5.3579998 -0.36199999 5.4003801
0 0 0 0
0 0 0 0
-0.46000001 -4.8569999 -0.30899999 4.8885098
-0.456 -4.9749999 -0.32100001 5.006156
-0.46399999 -5.2319999 -0.34799999 5.26405
-0.41800001 -4.9050002 -0.31400001 4.9327831
-0.41100001 -5.1929998 -0.34299999 5.2205186
-0.39700001 -5.1199999 -0.336 5.146349
-0.35499999 -4.7940001 -0.30199999 4.8166032
-0.36899999 -5.1739998 -0.34099999 5.198338
-0.31200001 -4.8210001 -0.30399999 4.8406405
-0.29899999 -4.855 -0.308 4.87394
-0.278 -4.7709999 -0.29899999 4.7884364
-0.27900001 -4.9029999 -0.31200001 4.9208326
-0.27200001 -5.046 -0.32699999 5.0638947
-0.233 -4.6360002 -0.28400001 4.6505313
-0.208 -4.7249999 -0.29300001 4.7386432
-0.191 -4.6820002 -0.289 4.694798
-0.185 -4.7059999 -0.29100001 4.7186165
-0.17200001 -4.7459998 -0.296 4.7583313
-0.15800001 -4.7729998 -0.29800001 4.7849026
-0.12800001 -4.7810001 -0.29899999 4.7920504
-0.122 -5.1020002 -0.33199999 5.1142464
-0.112 -5.0050001 -0.322 5.0165977
-0.086000003 -5.2800002 -0.35100001 5.2923532
-0.071999997 -5.4349999 -0.36700001 5.4478526
-0.050000001 -5.0910001 -0.331 5.101994
-0.037 -5.2979999 -0.35299999 5.309876
-0.02 -5.3060002 -0.354 5.3178339
-0.0080000004 -4.743 -0.29499999 4.752172
0.022 -4.7210002 -0.29300001 4.730135
0.037 -4.7670002 -0.29699999 4.7763867
0.052000001 -4.777 -0.29800001 4.7865686
0.068000004 -4.9060001 -0.31200001 4.9163814
0.092 -4.9770002 -0.31900001 4.9880614
0.105 -4.8000002 -0.301 4.8105745
0.119 -4.724 -0.29300001 4.7345734
0.141 -5.0500002 -0.32699999 5.0625401
0.152 -4.8660002 -0.308 4.8781066
0.19400001 -5.296 -0.31999999 5.3092046
0.18799999 -4.7849998 -0.30000001 4.7980795
0.21699999 -5.184 -0.34099999 5.1997333
0.23999999 -5.3470001 -0.35800001 5.3643427
0.227 -4.664 -0.287 4.6783323
0.255 -4.7859998 -0.30000001 4.8021684
0.28200001 -5.02 -0.32499999 5.0384073
0.278 -4.6399999 -0.285 4.6570492
0.30199999 -4.8130002 -0.303 4.831975
0.31999999 -4.8579998 -0.308 4.8782606
0.32300001 -4.6669998 -0.28799999 4.6870203
0.34799999 -4.711 -0.29300001 4.732914
0.36199999 -4.6999998 -0.292 4.7229552
0.375 -4.6690001 -0.289 4.6929426
0 0 0 0
0 0 0 0
0.44400001 -4.8759999 -0.31099999 4.9060407
0.44800001 -4.7399998 -0.29699999 4.7703786
0.46399999 -4.7550001 -0.29800001 4.78687
0.47499999 -4.71 -0.294 4.743012
0.484 -4.6469998 -0.287 4.6809435
0.49599999 -4.6269999 -0.28600001 4.6622891
0.52200001 -4.6620002 -0.28999999 4.7000885
0.56199998 -4.8899999 -0.31400001 4.9321942
0.57099998 -4.8330002 -0.308 4.8763504
0 0 0 0
0.65600002 -5.2140002 -0.34799999 5.2666154
0.64499998 -4.9959998 -0.32600001 5.0480013
0.60299999 -4.5359998 -0.27700001 4.584281
0.62199998 -4.572 -0.28099999 4.6226649
0.64200002 -4.6090002 -0.28600001 4.6622791
0.65499997 -4.5970001 -0.285 4.6521673
0.72299999 -4.9250002 -0.31900001 4.9879975
0.72100002 -4.8010001 -0.30700001 4.8645344
0.74800003 -4.8790002 -0.315 4.9460459
0.77700001 -4.8629999 -0.31400001 4.9346828
0.81699997 -5.0170002 -0.33000001 5.0937881
0.829 -5.0419998 -0.333 5.1205363
0.86000001 -5.131 -0.34299999 5.2138672
0 0 0 0
0.84299999 -4.7490001 -0.303 4.8327484
0.84600002 -4.677 -0.296 4.7621069
0.85000002 -4.652 -0.29300001 4.7380853
0.86699998 -4.6630001 -0.29499999 4.7520819
0.88499999 -4.6799998 -0.29699999 4.7721934
0.958 -4.9050002 -0.32100001 5.007977
0.93199998 -4.6849999 -0.29800001 4.7860894
0.93300003 -4.6139998 -0.29100001 4.716372
0.94199997 -4.6209998 -0.292 4.7250681
0.96600002 -4.664 -0.29699999 4.7722387
0.98500001 -4.6110001 -0.292 4.7240672
1.022 -4.7129998 -0.303 4.8320451
1.031 -4.6849999 -0.301 4.8065357
1.03 -4.6420002 -0.296 4.7641034
1.076 -4.7140002 -0.30399999 4.84479
1.082 -4.671 -0.30000001 4.8040571
1.138 -4.848 -0.31999999 4.9900451
1.166 -4.8990002 -0.32499999 5.0463238
1.1210001 -4.638 -0.29800001 4.7808461
1.1849999 -4.8080001 -0.317 4.9620137
1.182 -4.7290001 -0.30899999 4.8842654
1.183 -4.671 -0.303 4.8279953
1.2 -4.677 -0.30399999 4.8380518
1.196 -4.598 -0.296 4.7602139
1.235 -4.6620002 -0.303 4.8323159
1.284 -4.789 -0.317 4.968266
1.261 -4.6389999 -0.30199999 4.8168087
1.294 -4.7059999 -0.30899999 4.8904347
1.301 -4.671 -0.30599999 4.8584437
1.329 -4.6859999 -0.308 4.8805432
1.396 -4.869 -0.329 5.0758467
1.364 -4.6989999 -0.31 4.9027743
1.4809999 -5.0500002 -0.34900001 5.2742453
0 0 0 0
0 0 0 0
1.4299999 -4.6789999 -0.31 4.9024525
1.4450001 -4.6739998 -0.31 4.902081
4.5580001 -14.473 -0.917 15.201446
4.612 -14.485 -0.91900003 15.229259
4.6459999 -14.512 -0.921 15.265375
4.711 -14.558 -0.926 15.329265
4.7979999 -14.515 -0.92500001 15.315406
5.546 -16.591 -1.0880001 17.52721
5.5289998 -16.368 -1.072 17.309835
4.2220001 -12.425 -0.852 13.150354
0 0 0 0
5.6430001 -16.284 -1.068 17.267099
0 0 0 0
4.52 -12.71 -0.88099998 13.51853
4.5320001 -12.618 -0.87400001 13.435656
4.7129998 -12.932 -0.903 13.793637
4.671 -12.691 -0.884 13.552164
4.6869998 -12.613 -0.87800002 13.48431
4.5939999 -12.243 -0.84799999 13.104007
4.6339998 -12.232 -0.84799999 13.107818
4.612 -12.057 -0.83399999 12.935893
4.5770001 -11.799 -0.81400001 12.681795
4.493 -11.473 -0.787 12.346503
4.4899998 -11.358 -0.77899998 12.2381
4.4959998 -11.27 -0.77200001 12.158244
4.5040002 -11.187 -0.76599997 12.083946
4.77 -11.692 -0.81199998 12.65366
4.7950001 -11.648 -0.80900002 12.622298
4.9359999 -11.887 -0.83099997 12.897884
4.9489999 -11.813 -0.82599998 12.834401
4.9660001 -11.749 -0.82200003 12.781856
4.0809999 -9.5170002 -0.63 10.374235
4.085 -9.4440002 -0.62400001 10.308528
4.1680002 -9.5550003 -0.63499999 10.443826
4.1700001 -9.4779997 -0.63 10.373923
4.2919998 -9.6730003 -0.648 10.602269
4.7779999 -10.64 -0.73500001 11.686707
0 0 0 0
4.1209998 -9.0010004 -0.64999998 9.9208441
4.0879998 -8.8559999 -0.63700002 9.7747755
4.099 -8.8070002 -0.634 9.7348347
3.9849999 -8.46 -0.60299999 9.3709888
4.0549998 -8.5369997 -0.611 9.4708347
4.0349998 -8.4289999 -0.602 9.3643837
4.0510001 -8.3950005 -0.60000002 9.3405914
4.0949998 -8.4160004 -0.60399997 9.3788538
4.1110001 -8.3500004 -0.59899998 9.3263941
4.145 -8.3529997 -0.60100001 9.3442402
4.2509999 -8.4989996 -0.616 9.5227861
4.1799998 -8.2919998 -0.597 9.3051634
4.2030001 -8.2729998 -0.597 9.2986097
4.2449999 -8.2919998 -0.60000002 9.3347349
4.2740002 -8.2519999 -0.59799999 9.3123674
4.3239999 -8.2849998 -0.602 9.3648596
4.368 -8.3050003 -0.60600001 9.4031744
4.3590002 -8.2259998 -0.59899998 9.3288136
4.427 -8.2889996 -0.60699999 9.4167023
4.4439998 -8.2279997 -0.60299999 9.3708439
4.4260001 -8.1339998 -0.59500003 9.2793026
4.5479999 -8.2959995 -0.61199999 9.4806356
4.6020002 -8.3299999 -0.61699998 9.5366659
4.6350002 -8.2980003 -0.616 9.5246782
4.698 -8.349 -0.62300003 9.6002674
5.1230001 -9.0340004 -0.69199997 10.408514
4.7649999 -8.3439999 -0.625 9.6290283
5.2399998 -9.059 -0.63800001 10.484756
5.415 -9.2959995 -0.662 10.778501
5.1160002 -8.7159996 -0.61000001 10.12493
5.1849999 -8.7390003 -0.61400002 10.179948
5.3109999 -8.934 -0.69199997 10.416427
5.3829999 -8.9910002 -0.69999999 10.502608
5.0770001 -8.3629999 -0.63999999 9.8043509
5.4060001 -8.8249998 -0.62900001 10.368274
5.125 -8.3529997 -0.64099997 9.8208513
5.2059999 -8.4250002 -0.64999998 9.9249964
5.3280001 -8.5010004 -0.66100001 10.054427
5.3579998 -8.5030003 -0.60500002 10.068525
5.428 -8.5699997 -0.671 10.16653
5.3410001 -8.3769999 -0.653 9.9562454
5.3709998 -8.3649998 -0.65399998 9.9623585
4.9840002 -7.6599998 -0.58499998 9.1574059
4.6500001 -7.1020002 -0.52899998 8.5053368
4.6719999 -7.1110001 -0.52999997 8.5249519
4.7049999 -7.0630002 -0.528 8.5030451
5.7659998 -8.5880003 -0.68800002 10.36696
5.6599998 -8.3870001 -0.611 10.136601
5.8930001 -8.6750002 -0.63999999 10.506792
6.033 -8.823 -0.65600002 10.708536
5.9489999 -8.6409998 -0.63999999 10.510332
0 0 0 0
5.1550002 -7.3540001 -0.57099998 8.9989662
5.2410002 -7.427 -0.57999998 9.1085024
5.125 -7.2160001 -0.56 8.8684769
5.027 -7.0089998 -0.54000002 8.6422453
5.0809999 -7.0370002 -0.54500002 8.6967211
5.0760002 -6.9840002 -0.54100001 8.6507063
5.1700001 -7.066 -0.55199999 8.7727966
5.0650001 -6.8790002 -0.53299999 8.559145
5.1799998 -6.987 -0.54699999 8.7149172
5.118 -6.8369999 -0.53299999 8.5570192
5.158 -6.8449998 -0.53600001 8.5875654
5.1690001 -6.816 -0.53399998 8.5709734
5.1729999 -6.776 -0.53200001 8.5414944
5.211 -6.7820001 -0.53399998 8.5694342
5.2550001 -6.7729998 -0.53600001 8.5892868
5.2820001 -6.7639999 -0.537 8.5988131
5.3060002 -6.75 -0.537 8.6025877
5.5679998 -7.0359998 -0.56999999 8.9907064
5.5630002 -6.9840002 -0.56699997 8.9467716
5.4089999 -6.7270002 -0.54100001 8.6488438
5.3460002 -6.6069999 -0.52999997 8.51546
5.4359999 -6.6750002 -0.53899997 8.6253252
5.4819999 -6.6880002 -0.542 8.664608
5.8520002 -7.0910001 -0.58899999 9.2127695
5.2859998 -6.349 -0.509 8.2771177
4.0050001 -4.7839999 -0.412 6.2527132
4.02 -4.7709999 -0.412 6.2524061
4.0100002 -4.6989999 -0.40599999 6.1907625
4.0159998 -4.691 -0.40599999 6.1885839
4.0110002 -4.6560001 -0.403 6.1586418
11.788 -13.567 -1.123 18.00782
11.78 -13.472 -1.117 17.930723
11.886 -13.507 -1.124 18.027185
11.956 -13.501 -1.127 18.06912
11.864 -13.313 -1.113 17.866987
4.1810002 -4.6570001 -0.414 6.2721453
4.224 -4.6459999 -0.41600001 6.2928967
4.2459998 -4.6409998 -0.41800001 6.3041348
4.2810001 -4.664 -0.421 6.3448482
4.2979999 -4.6409998 -0.38100001 6.3369427
4.3249998 -4.6409998 -0.382 6.3553462
4.3730001 -4.6479998 -0.38600001 6.393436
9.743 -10.296 -0.93599999 14.205976
9.5900002 -10.07 -0.91399997 13.935867
11.942 -12.426 -1.068 17.267237
5.474 -5.6859999 -0.477 7.907136
5.5209999 -5.6630001 -0.479 7.9234118
5.48 -5.6009998 -0.51899999 7.8530855
5.3239999 -5.4050002 -0.49599999 7.6029611
5.2969999 -5.3449998 -0.491 7.5411081
5.276 -5.29 -0.486 7.4870868
5.48 -5.4439998 -0.509 7.7412286
5.5609999 -5.4759998 -0.47 7.8187079
5.5040002 -5.3990002 -0.50800002 7.7266607
5.461 -5.323 -0.5 7.6424375
5.4169998 -5.2459998 -0.49200001 7.5568824
5.4359999 -5.2150002 -0.491 7.5490003
5.474 -5.2189999 -0.49399999 7.5793586
5.5370002 -5.2470002 -0.5 7.6445656
5.4949999 -5.1729999 -0.493 7.5629358
5.4959998 -5.1420002 -0.491 7.5423646
11.534 -10.652 -0.95499998 15.729281
11.614 -10.659 -0.95999998 15.793065
12.247 -11.167 -1.02 16.605158
11.674 -10.579 -0.95899999 15.783447
6.2509999 -5.6160002 -0.52100003 8.4193764
5.717 -5.1020002 -0.50300002 7.6790304
12.422 -11.009 -1.022 16.629751
5.809 -5.1360002 -0.51200002 7.7707863
11.557 -10.117 -0.93000001 15.38775
0 0 0 0
5.9390001 -5.1199999 -0.51999998 7.858532
5.9780002 -5.1370001 -0.52399999 7.8993559
5.9590001 -5.0879998 -0.51899999 7.8528199
6.0190001 -5.0929999 -0.477 7.8990216
0 0 0 0
6.237 -5.1929998 -0.49700001 8.1310778
6.2389998 -5.1620002 -0.495 8.11273
11.37 -9.3640003 -0.98100001 14.76224
6.4809999 -5.2919998 -0.51800001 8.3831348
7.7490001 -6.2810001 -0.65600002 9.9964142
6.546 -5.2779999 -0.52200001 8.4249563
6.1139998 -4.8839998 -0.472 7.8394661
6.2350001 -4.9310002 -0.52999997 7.9668617
6.2750001 -4.947 -0.486 8.0052881
6.3969998 -5.0110002 -0.49700001 8.1411753
6.5089998 -5.0650001 -0.50800002 8.263133
6.2639999 -4.8280001 -0.479 7.9231763
6.2740002 -4.8049998 -0.47799999 7.9170442
6.2719998 -4.7719998 -0.47600001 7.8953495
6.2909999 -4.756 -0.477 7.9008694
7.046 -5.2540002 -0.55500001 8.8067389
6.5320001 -4.8569999 -0.49900001 8.1551504
6.6490002 -4.9099998 -0.509 8.281086
6.632 -4.8660002 -0.50599998 8.2412024
7.0089998 -5.1069999 -0.54400003 8.6892729
6.5900002 -4.7410002 -0.49700001 8.1334
6.638 -4.7589998 -0.50099999 8.1830387
6.7160001 -4.783 -0.50800002 8.2607393
6.9320002 -4.9029999 -0.52899998 8.5071659
6.7490001 -4.743 -0.50800002 8.2645702
6.9190001 -4.7969999 -0.523 8.4354792
6.915 -4.7779999 -0.52100003 8.421279
6.9070001 -4.7410002 -0.51899999 8.3936338
6.915 -4.7140002 -0.51800001 8.3849478
6.9530001 -4.6760001 -0.51899999 8.3951502
6.9920001 -4.671 -0.52200001 8.4248915
7.0320001 -4.6659999 -0.52399999 8.4554806
7.1360002 -4.7179999 -0.53399998 8.5712996
7.2420001 -4.7550001 -0.54400003 8.680583
7.3460002 -4.757 -0.551 8.7690573
7.3439999 -4.723 -0.55000001 8.7489176
7.4510002 -4.7589998 -0.55900002 8.858779
7.5279999 -4.7909999 -0.56599998 8.9411869
7.5019999 -4.7420001 -0.56199998 8.8928289
7.6669998 -4.7789998 -0.57599998 9.0528173
7.645 -4.7309999 -0.57200003 9.0086384
7.7309999 -4.7509999 -0.579 9.0926123
7.6690001 -4.6960001 -0.57200003 9.010725
0 0 0 0
8.3959999 -5.0310001 -0.63999999 9.8088417
8.0240002 -4.7750001 -0.602 9.3566875
0 0 0 0
8.2309999 -4.8280001 -0.61900002 9.5625362
8.7580004 -5.0799999 -0.66900003 10.146749
8.2150002 -4.7329998 -0.61400002 9.5007639
8.4139996 -4.8109999 -0.63200003 9.7129049
9.4219999 -5.3449998 -0.73000002 10.857072
0 0 0 0
9.4779997 -5.3179998 -0.73299998 10.892699
9.0290003 -4.993 -0.68599999 10.340382
8.7299995 -4.7930002 -0.65499997 9.9807196
8.6920004 -4.737 -0.64999998 9.92031
8.8409996 -4.7810001 -0.66299999 10.072776
8.7279997 -4.6680002 -0.64999998 9.9192085
9.0089998 -4.8080001 -0.61799997 10.23039
8.9829998 -4.7309999 -0.67199999 10.174882
8.948 -4.677 -0.667 10.118592
9.0489998 -4.6939998 -0.67500001 10.216343
9.1440001 -4.7059999 -0.68300003 10.306583
9.1049995 -4.6589999 -0.61900002 10.246486
9.3400002 -4.7249999 -0.639 10.486636
9.3760004 -4.7059999 -0.63999999 10.510253
9.3979998 -4.6799998 -0.64099997 10.51835
9.4040003 -4.6459999 -0.63999999 10.508574
9.4860001 -4.632 -0.64600003 10.576243
9.651 -4.6750002 -0.65899998 10.743915
9.7340002 -4.665 -0.727 10.818573
9.8260002 -4.684 -0.67199999 10.90604
9.8660002 -4.6279998 -0.67299998 10.9183
9.9309998 -4.6199999 -0.67799997 10.974008
9.9849997 -4.6269999 -0.68199998 11.026081
10.139 -4.6599998 -0.69400001 11.180185
10.317 -4.6630001 -0.70700002 11.343893
10.324 -4.6279998 -0.70700002 11.335926
10.761 -4.7839999 -0.74400002 11.799971
10.506 -4.6500001 -0.72100002 11.511662
10.797 -4.6989999 -0.74299997 11.798637
10.914 -4.7090001 -0.75199997 11.910314
10.864 -4.6469998 -0.74699998 11.839726
11.413 -4.8410001 -0.79299998 12.422588
11.565 -4.8839998 -0.80599999 12.579838
11.091 -4.6009998 -0.76200002 12.03163
11.305 -4.6490002 -0.77899998 12.24839
11.65 -4.7480001 -0.80800003 12.606302
12.049 -4.868 -0.84100002 13.022407
12.094 -4.8200002 -0.84299999 13.046374
12.083 -4.7719998 -0.84100002 13.018377
11.86 -4.6399999 -0.82099998 12.761788
12.046 -4.6700001 -0.83499998 12.946514
12.062 -4.632 -0.83499998 12.947761
12.047 -4.5830002 -0.833 12.916191
12.063 -4.5240002 -0.83200002 12.910258
12.138 -4.5089998 -0.838 12.97553
12.224 -4.4980001 -0.84399998 13.052607
12.324 -4.4910002 -0.85100001 13.144362
15.575 -5.6259999 -1.0190001 16.591288
15.521 -5.552 -1.013 16.515215
15.43 -5.4640002 -1.005 16.399702
15.4 -5.3449998 -1 16.331841
15.463 -5.3130002 -1.003 16.381037
15.437 -5.25 -1 16.335957
15.479 -5.237 -1.003 16.371672
15.457 -5.1209998 -0.99800003 16.313782
15.452 -5.066 -0.99699998 16.291798
15.507 -5.0300002 -1 16.333033
14.334 -4.6020002 -0.90799999 15.08199
15.12 -4.7740002 -0.96700001 15.885231
14.754 -4.6090002 -0.93699998 15.485521
14.9 -4.6030002 -0.94800001 15.623582
15.077 -4.605 -0.95999998 15.793782
15.206 -4.592 -0.96899998 15.913763
15.36 -4.586 -0.98000002 16.059931
15.504 -4.5489998 -0.98900002 16.18782
15.55 -4.5100002 -0.99199998 16.22118
15.735 -4.5089998 -1.005 16.399126
15.849 -4.4879999 -1.012 16.503244
15.984 -4.4720001 -1.022 16.629238
15.913 -4.3709998 -1.015 16.533585
16.393999 -4.448 -1.05 17.019119
16.882 -4.5219998 -1.086 17.510847
16.972 -4.4889998 -1.092 17.589554
17.214001 -4.4949999 -1.109 17.825731
17.617001 -4.5110002 -1.1390001 18.221008
17.820999 -4.5029998 -1.153 18.417233
18.046 -4.5 -1.169 18.635307
18.299999 -4.5019999 -1.187 18.88298
18.392 -4.4629998 -1.193 18.963314
18.919001 -4.4959998 -1.232 19.484877
19.141001 -4.4850001 -1.247 19.698938
19.375 -4.4749999 -1.2640001 19.925209
19.625999 -4.4679999 -1.2819999 20.168945
19.868 -4.4569998 -1.299 20.403177
20.1 -4.4419999 -1.3150001 20.626938
20.624001 -4.4559999 -1.353 21.143225
20.874001 -4.441 -1.3710001 21.385181
21.315001 -4.4640002 -1.403 21.82258
21.583 -4.4489999 -1.4220001 22.082609
21.621 -4.3860002 -1.424 22.107294
22.332001 -4.4200001 -1.476 22.813005
22.638 -4.4060001 -1.498 23.111382
22.975 -4.3969998 -1.522 23.441431
23.568001 -4.3730001 -1.447 24.013905
26.052 -4.7519999 -1.62 26.531351
26.068001 -4.7129998 -1.62 26.54011
24.691999 -4.3829999 -1.523 25.124193
24.860001 -4.3319998 -1.534 25.281199
25.855 -4.3400002 -1.602 26.265625
25.979 -4.277 -1.609 26.377832
26.413 -4.3060002 -1.6390001 26.811836
26.489 -4.2329998 -1.6440001 26.87542
29.958 -4.598 -1.883 30.367237
29.933001 -4.4980001 -1.88 30.327396
29.937 -4.402 -1.88 30.317257
29.934999 -4.3060002 -1.8789999 30.301426
29.968 -4.2620001 -1.88 30.327877
30.541 -4.1490002 -1.919 30.881216
30.879 -4.0960002 -1.941 31.20989
30.903 -4.0009999 -1.942 31.221384
31.077999 -3.924 -1.9529999 31.385571
31.235001 -3.7950001 -1.9630001 31.525873
31.309999 -3.704 -1.967 31.58963
31.372999 -3.612 -1.971 31.641689
31.461 -3.5220001 -1.976 31.719137
31.524 -3.4289999 -1.98 31.771702
31.75 -3.302 -1.994 31.983459
31.848 -3.211 -2 32.07188
31.961 -3.1210001 -2.007 32.175678
32.042 -3.0280001 -2.0120001 32.247581
32.111 -2.9330001 -2.016 32.307632
32.25 -2.7920001 -2.0250001 32.433907
32.321999 -2.6960001 -2.029 32.497643
32.369999 -2.598 -2.0320001 32.537601
32.424 -2.5 -2.0350001 32.583847
32.443001 -2.3989999 -2.036 32.595226
32.532001 -2.2509999 -2.0420001 32.67366
32.583 -2.152 -2.0450001 32.71796
32.928001 -2.0710001 -2.0680001 33.057812
33.776001 -2.0190001 -2.1259999 33.903015
33.681 -1.9069999 -2.119 33.801426
33.346001 -1.783 -2.095 33.459286
33.067001 -1.6109999 -2.076 33.171249
32.973 -1.503 -2.069 33.072021
32.887001 -1.395 -2.063 32.981159
32.806 -1.288 -2.0569999 32.895649
32.728001 -1.182 -2.0510001 32.813499
32.576 -1.023 -2.04 32.655842
32.507 -0.91900003 -2.0350001 32.583599
32.424 -0.81400001 -2.029 32.49762
32.363998 -0.71100003 -2.0250001 32.435081
32.294998 -0.60799998 -2.02 32.363823
32.237 -0.505 -2.016 32.303921
32.097 -0.352 -2.006 32.161552
32.023998 -0.25 -2.0009999 32.087429
31.959 -0.149 -1.997 32.021679
31.867001 0.050999999 -1.99 31.929115
31.809 0.101 -1.9859999 31.871098
31.767 0.20100001 -1.984 31.829529
31.716 0.30000001 -1.98 31.77916
31.683001 0.40000001 -1.978 31.747204
31.67 0.49900001 -1.977 31.735571
31.679001 0.648 -1.978 31.747307
31.725 0.74900001 -1.9809999 31.795612
31.726 0.84899998 -1.982 31.799187
31.726 0.94800001 -1.982 31.801983
31.663 1.146 -1.978 31.745415
31.612 1.243 -1.975 31.698015
31.712999 1.2970001 -1.982 31.801334
31.759001 1.399 -1.985 31.851713
31.784 1.5 -1.987 31.881355
31.851999 1.704 -1.992 31.959686
31.865999 1.8049999 -1.994 31.979303
31.913 1.858 -1.997 32.029358
32.008999 1.964 -2.0039999 32.131748
32.247002 2.1819999 -2.0220001 32.383926
32.342999 2.2909999 -2.029 32.487461
32.423 2.3989999 -2.0350001 32.57526
32.513 2.5079999 -2.0420001 32.673462
32.618 2.5680001 -2.049 32.783028
32.824001 2.7909999 -2.0639999 33.007042
32.929001 2.904 -2.072 33.121677
33.041 3.0190001 -2.0810001 33.243835
33.153999 3.1340001 -2.089 33.367252
33.361 3.312 -2.105 33.591022
33.396999 3.4219999 -2.108 33.637974
33.219002 3.5090001 -2.096 33.469513
33.144001 3.6070001 -2.092 33.405266
32.984001 3.694 -2.0810001 33.255383
32.793999 3.8299999 -2.0699999 33.081722
32.681 3.921 -2.063 32.979961
32.612999 4.0159998 -2.059 32.923782
32.508999 4.1069999 -2.052 32.831585
32.398998 4.197 -2.046 32.733715
32.215 4.3280001 -2.0339999 32.568008
32.094002 4.414 -2.027 32.459469
32.040001 4.5100002 -2.0239999 32.419106
31.962999 4.6009998 -2.02 32.355572
31.936001 4.6999998 -2.0190001 32.343075
31.884001 4.7950001 -2.016 32.305508
31.754999 4.928 -2.0090001 32.197845
31.712999 5.0240002 -2.007 32.171154
31.66 5.118 -2.0039999 32.133556
31.589001 5.2080002 -2.0009999 32.077911
31.525 5.2989998 -1.997 32.029564
31.364 5.4239998 -1.988 31.891573
31.333 5.5209999 -1.987 31.87768
31.304001 5.6170001 -1.9859999 31.865898
31.254 5.7090001 -1.984 31.833025
31.266001 5.8130002 -1.9859999 31.863741
31.263 5.914 -1.987 31.87944
31.413 6.0960002 -1.999 32.061405
31.482 6.2119999 -2.006 32.151661
31.513 6.3210001 -2.0090001 32.203423
28.458 5.8039999 -1.796 29.099308
28.127001 5.829 -1.774 28.779377
27.754 5.888 -1.75 28.425613
26.726999 5.7589998 -1.679 27.391926
26.666 5.8340001 -1.676 27.348127
26.296 5.8400002 -1.651 26.987238
25.823999 5.8210001 -1.619 26.521391
24.91 5.7389998 -1.557 25.60993
24.509001 5.7280002 -1.53 25.215908
24.549 5.8189998 -1.534 25.275826
24.341999 5.8509998 -1.52 25.081417
23.541 5.777 -1.466 24.283772
23.457001 5.8340001 -1.461 24.215717
23.392 5.8959999 -1.4579999 24.167629
23.351999 5.9640002 -1.456 24.145498
23.382 6.0500002 -1.46 24.196115
23.448999 6.2249999 -1.467 24.305519
21.761999 5.7919998 -1.4579999 22.566738
21.444 5.8150001 -1.436 22.264803
21.007 5.7670002 -1.404 21.82942
20.653999 5.7399998 -1.378 21.481018
20.660999 5.8119998 -1.38 21.507223
20.559 5.8870001 -1.374 21.429352
20.552 5.9549999 -1.375 21.441486
20.506001 6.0120001 -1.373 21.413204
19.223 5.6999998 -1.276 20.090841
19.204 5.8260002 -1.277 20.10887
18.886 5.7610002 -1.2539999 19.784908
18.712 5.7719998 -1.242 19.621353
18.462999 5.7589998 -1.224 19.379025
18.318001 5.776 -1.214 19.245392
17.902 5.7680001 -1.184 18.845512
17.573999 5.6929998 -1.16 18.509493
17.361 5.684 -1.145 18.30364
17.365 5.7459998 -1.146 18.326839
16.951 5.7270002 -1.117 17.927147
16.886 5.7639999 -1.113 17.877344
16.518999 5.6960001 -1.086 17.507174
16.382 5.677 -1.076 17.371126
0 0 0 0
0 0 0 0
0 0 0 0
0 0 0 0
0 0 0 0
0 0 0 0
0 0 0 0
0 0 0 0
0 0 0 0
0 0 0 0
0 0 0 0
0 0 0 0
0 0 0 0
0 0 0 0
0 0 0 0
0 0 0 0
0 0 0 0
0 0 0 0
0 0 0 0
0 0 0 0
0 0 0 0
0 0 0 0
0 0 0 0
0 0 0 0
0 0 0 0
7.1069999 3.221 -0.47 7.8169808
15.343 7.0250001 -1.0420001 16.906923
18.646999 8.6149998 -1.312 20.582764
7.105 3.302 -0.472 7.8490133
7.1040001 3.3280001 -0.47299999 7.8591428
11.33 5.388 -0.80500001 12.571693
11.298 5.395 -0.80299997 12.545742
10.891 5.244 -0.76899999 12.112174
10.921 5.342 -0.77399999 12.18213
10.82 5.335 -0.76700002 12.088131
10.751 5.3439999 -0.76200002 12.030087
10.725 5.3520002 -0.75999999 12.010293
10.842 5.4949999 -0.77399999 12.179617
10.811 5.5219998 -0.773 12.164199
10.462 5.3860002 -0.74299997 11.790441
10.452 5.4229999 -0.74299997 11.798529
10.746 5.5960002 -0.77100003 12.140271
10.395 5.4970002 -0.74199998 11.782343
10.062 5.3629999 -0.71399999 11.424335
9.7729998 5.2490001 -0.68900001 11.114777
9.8400002 5.3249998 -0.69599998 11.210069
9.7779999 5.3109999 -0.69099998 11.148699
10.036 5.5320001 -0.71799999 11.482153
10.043 5.5770001 -0.72000003 11.510134
9.4540005 5.2909999 -0.66799998 10.854447
9.4910002 5.3509998 -0.67299998 10.916282
9.3859997 5.3299999 -0.66500002 10.814255
9.1960001 5.2810001 -0.64999998 10.6244
9.1730003 5.3060002 -0.64899999 10.61691
9.6409998 5.6149998 -0.69400001 11.178494
8.9460001 5.2509999 -0.63099998 10.392405
9.0410004 5.3439999 -0.64099997 10.52183
8.7910004 5.2249999 -0.67799997 10.249
8.783 5.2579999 -0.67900002 10.259079
8.6440001 5.2399998 -0.61000001 10.12662
8.5340004 5.2179999 -0.65899998 10.024518
8.4969997 5.2140002 -0.65600002 9.9907532
8.5500002 5.2839999 -0.66299999 10.07287
8.3780003 5.25 -0.64899999 9.908309
8.3319998 5.257 -0.64600003 9.8729725
8.3199997 5.2859998 -0.64600003 9.878335
8.2550001 5.263 -0.64099997 9.8109674
8.2349997 5.2870002 -0.63999999 9.8069963
8.1809998 5.3249998 -0.63800001 9.7821989
8.0900002 5.302 -0.63 9.6931009
7.9640002 5.2540002 -0.61900002 9.5610132
7.934 5.27 -0.61799997 9.5447989
7.8759999 5.2849998 -0.61400002 9.504715
7.7670002 5.2470002 -0.60500002 9.3927279
7.8280001 5.3249998 -0.61299998 9.4873066
7.737 5.2979999 -0.60500002 9.396595
7.704 5.3109999 -0.60299999 9.3766699
7.6149998 5.303 -0.597 9.2987328
7.4520001 5.223 -0.58099997 9.1186399
7.4190001 5.2350001 -0.57999998 9.098527
7.427 5.276 -0.58200002 9.1288128
7.3730001 5.2719998 -0.57800001 9.0823565
7.2529998 5.2210002 -0.56699997 8.9546824
7.1529999 5.1999998 -0.55900002 8.8610325
7.1719999 5.2480001 -0.56300002 8.9048338
7.1490002 5.2659998 -0.56199998 8.8968983
7.1609998 5.3099999 -0.565 8.9328184
7.0510001 5.2620001 -0.55500001 8.8155127
6.9650002 5.2490001 -0.54900002 8.7386856
6.8660002 5.2080002 -0.54000002 8.6346302
6.836 5.2189999 -0.53799999 8.6173258
6.7969999 5.223 -0.53600001 8.588727
6.7540002 5.224 -0.53299999 8.5551615
6.6900001 5.2249999 -0.52899998 8.5050907
6.6609998 5.2360001 -0.52700001 8.4889536
6.6560001 5.2649999 -0.528 8.5030193
6.586 5.244 -0.523 8.4349546
6.5560002 5.2529998 -0.52100003 8.4170418
6.5029998 5.2610002 -0.51800001 8.3806601
6.5310001 5.3179998 -0.523 8.4385195
6.5120001 5.336 -0.523 8.4351988
6.4629998 5.3299999 -0.51899999 8.3933687
6.4380002 5.3779998 -0.51999998 8.4048281
6.1599998 5.1609998 -0.49000001 8.0511875
6.1090002 5.151 -0.486 8.0055532
6.1139998 5.1880002 -0.48800001 8.0333357
5.9920001 5.1490002 -0.47799999 7.914844
5.902 5.1040001 -0.47 7.8169894
5.9450002 5.1599998 -0.523 7.8893695
5.902 5.1529999 -0.472 7.8491902
5.8709998 5.158 -0.47099999 7.8291407
5.9289999 5.276 -0.48100001 7.9511366
5.8779998 5.2639999 -0.477 7.9049416
5.7270002 5.1479998 -0.50700003 7.7173491
5.6999998 5.1560001 -0.50599998 7.702621
5.6550002 5.164 -0.50300002 7.6745639
5.6149998 5.1609998 -0.5 7.6429148
5.6020002 5.1810002 -0.5 7.6469059
5.5679998 5.1820002 -0.498 7.622582
5.5679998 5.2150002 -0.5 7.6451845
5.5300002 5.2119999 -0.498 7.6153693
5.4850001 5.2189999 -0.495 7.5873718
5.4369998 5.2059999 -0.491 7.5435057
5.4060001 5.2090001 -0.48899999 7.5231404
5.3779998 5.2150002 -0.48800001 7.5071468
5.369 5.2550001 -0.49000001 7.5286975
5.3899999 5.3080001 -0.49399999 7.5809631
5.2820001 5.2360001 -0.48300001 7.4530873
5.3260002 5.3130002 -0.491 7.5389209
5.224 5.244 -0.479 7.4174895
5.0900002 5.1739998 -0.46599999 7.2729316
5.052 5.1529999 -0.46200001 7.2311516
5.0749998 5.2080002 -0.46799999 7.2868319
5.2550001 5.4250002 -0.493 7.5689301
4.9349999 5.1609998 -0.45500001 7.1552196
4.928 5.1869998 -0.45699999 7.1693096
4.902 5.1760001 -0.454 7.1432972
4.8610001 5.165 -0.45100001 7.1070352
4.8530002 5.1890001 -0.45199999 7.1191034
4.8340001 5.2340002 -0.454 7.1392179
5.4819999 5.9679999 -0.49599999 8.1188278
5.066 5.5349998 -0.48899999 7.5192885
4.7480001 5.223 -0.44800001 7.0727601
4.6589999 5.1589999 -0.43799999 6.9651566
4.6069999 5.1659999 -0.435 6.9355049
4.54 5.1240001 -0.428 6.8593121
4.5279999 5.1420002 -0.42899999 6.8649096
4.5229998 5.152 -0.42899999 6.8691101
4.5100002 5.171 -0.43000001 6.8748994
4.454 5.1719999 -0.42699999 6.8388615
4.4289999 5.1760001 -0.42500001 6.8255143
4.4349999 5.2150002 -0.428 6.8592005
4.355 5.1389999 -0.41800001 6.7490792
4.2950001 5.1329999 -0.414 6.7056775
4.2750001 5.1420002 -0.414 6.69979
4.2150002 5.1030002 -0.40700001 6.6311755
4.1890001 5.1040001 -0.40599999 6.6153893
4.2059999 5.1570001 -0.41100001 6.6673841
4.1700001 5.1630001 -0.40900001 6.6492672
4.119 5.1329999 -0.40400001 6.5937142
4.079 5.1160002 -0.40099999 6.5553412
4.0580001 5.1230001 -0.40000001 6.547709
4.0219998 5.1100001 -0.39700001 6.5150743
4.0040002 5.1370001 -0.398 6.5252733
3.993 5.1560001 -0.398 6.5335131
3.973 5.164 -0.398 6.5276361
3.9719999 5.197 -0.40000001 6.5532885
3.937 5.184 -0.39700001 6.5216126
3.901 5.171 -0.39399999 6.4893975
3.878 5.191 -0.39500001 6.4916401
3.8640001 5.2059999 -0.39500001 6.4953022
3.8310001 5.1960001 -0.39199999 6.4675069
3.8239999 5.2210002 -0.39399999 6.4835987
3.7739999 5.1859999 -0.389 6.4256511
3.727 5.1729999 -0.38499999 6.3873844
3.697 5.1659999 -0.38299999 6.3641224
3.4389999 4.8540001 -0.384 5.9611654
3.4449999 4.895 -0.38800001 5.9982991
3.786 5.395 -0.405 6.6033211
3.7479999 5.395 -0.403 6.5814848
3.767 5.4590001 -0.40900001 6.6451678
3.671 5.3559999 -0.396 6.5053663
3.671 5.4169998 -0.442 6.55862
3.6010001 5.349 -0.433 6.4626999
3.533 5.2839999 -0.42399999 6.370441
3.4619999 5.2119999 -0.414 6.2707081
3.473 5.2639999 -0.419 6.3203626
3.4300001 5.2540002 -0.41600001 6.288281
3.3610001 5.1830001 -0.40599999 6.1906905
3.3150001 5.1459999 -0.40099999 6.134439
3.3080001 5.1719999 -0.403 6.1526303
3.2690001 5.145 -0.398 6.1086655
3.2479999 5.165 -0.39899999 6.1144037
3.2449999 5.198 -0.40099999 6.1408491
3.2079999 5.1739998 -0.398 6.1008148
3.184 5.1719999 -0.396 6.0863991
3.1210001 5.1040001 -0.38699999 5.9951
3.115 5.1490002 -0.391 6.0306144
3.085 5.1350002 -0.38800001 6.0029988
3.0669999 5.1430001 -0.38800001 6.0006237
3.0469999 5.1459999 -0.38699999 5.9929371
3.0250001 5.145 -0.38600001 5.9808564
3.01 5.1560001 -0.38600001 5.9827609
2.9549999 5.1170001 -0.38 5.9211583
2.944 5.1339998 -0.38100001 5.9304509
2.9530001 5.1890001 -0.38600001 5.9828858
2.882 5.1009998 -0.375 5.8708386
2.868 5.1129999 -0.375 5.8744206
2.8269999 5.0949998 -0.37200001 5.8386073
2.8440001 5.165 -0.37900001 5.9084015
2.849 5.2129998 -0.38299999 5.9530544
2.848 5.2509999 -0.38600001 5.9860754
2.8729999 5.3379998 -0.39500001 6.0748987
2.803 5.2670002 -0.38600001 5.9788871
2.684 5.0799999 -0.36399999 5.7569742
2.684 5.118 -0.36700001 5.7907228
2.9749999 5.7610002 -0.39500001 6.4958272
2.6500001 5.1719999 -0.37 5.8231421
0 0 0 0
0 0 0 0
2.612 5.198 -0.37099999 5.8291841
2.553 5.1599998 -0.36500001 5.7685905
2.5469999 5.1900001 -0.36700001 5.7929268
2.5209999 5.178 -0.36500001 5.7706456
2.579 5.3200002 -0.38 5.9243603
0 0 0 0
2.612 5.5209999 -0.40000001 6.1207829
0 0 0 0
2.494 5.3559999 -0.38 5.920403
0 0 0 0
2.642 5.75 -0.421 6.3419166
2.651 5.8179998 -0.428 6.4078164
2.428 5.4130001 -0.382 5.9448867
2.2920001 5.151 -0.35299999 5.6489534
2.3 5.191 -0.35699999 5.6889305
2.2839999 5.244 -0.361 5.7311878
2.26 5.2319999 -0.359 5.7105432
2.477 5.7930002 -0.41800001 6.314199
0 0 0 0
2.3369999 5.559 -0.39199999 6.0429888
2.155 5.1900001 -0.352 5.6306329
2.164 5.2600002 -0.35800001 5.6990051
2.164 5.3070002 -0.36300001 5.7427273
2.112 5.2249999 -0.35299999 5.6467495
2.118 5.2870002 -0.359 5.7067657
2.23 5.6240001 -0.39399999 6.0627971
0 0 0 0
0 0 0 0
2.0179999 5.2509999 -0.352 5.6364198
2.234 5.8759999 -0.417 6.3001604
1.949 5.1669998 -0.34200001 5.5329423
1.895 5.0960002 -0.33399999 5.4471827
1.878 5.098 -0.333 5.4431038
1.865 5.1129999 -0.33399999 5.4527559
1.8559999 5.1399999 -0.336 5.4751468
1.845 5.1589999 -0.338 5.4894037
1.809 5.1329999 -0.33399999 5.4526806
1.802 5.1669998 -0.33700001 5.4825778
1.801 5.2179999 -0.34200001 5.5306501
1.727 5.0500002 -0.324 5.3469625
1.7130001 5.0609999 -0.324 5.3528557
1.679 5.0409999 -0.32100001 5.3229465
1.6799999 5.0970001 -0.32699999 5.3766847
1.661 5.0929999 -0.32600001 5.3669214
1.652 5.119 -0.32800001 5.3889561
1.641 5.1999998 -0.33500001 5.4630671
1.627 5.1859999 -0.36700001 5.4476061
1.842 5.9439998 -0.41100001 6.2364268
1.663 5.4200001 -0.35600001 5.6805549
1.549 5.1009998 -0.32300001 5.3407798
0 0 0 0
1.476 5.0120001 -0.345 5.2361956
1.4529999 4.9920001 -0.34200001 5.2103972
1.451 5.0440001 -0.34799999 5.2600803
1.406 4.974 -0.33899999 5.1800032
1.392 4.9860001 -0.34 5.1878185
1.375 4.9850001 -0.34 5.1823211
1.365 5.0100002 -0.34200001 5.2038727
1.346 5.0009999 -0.34 5.1901174
1.33 5.0050001 -0.34 5.1898484
1.311 5.0310001 -0.34200001 5.2102447
1.294 5.027 -0.34200001 5.2021275
1.267 4.9910002 -0.33700001 5.1603236
1.251 4.993 -0.33700001 5.1583543
1.2460001 5.039 -0.34200001 5.2020192
0 0 0 0
1.242 5.1939998 -0.35699999 5.3523498
1.176 4.993 -0.33500001 5.1405497
1.149 4.948 -0.33000001 5.090364
1.113 4.862 -0.31999999 4.9980211
1.1289999 5.04 -0.33899999 5.1760182
1.1059999 5.0110002 -0.33500001 5.1425271
1.0930001 5.0279999 -0.33700001 5.1564522
1.081 5.0469999 -0.33899999 5.1725903
1.064 5.1230001 -0.34599999 5.2437525
1.044 5.0710001 -0.34 5.1885042
1.023 5.0469999 -0.33700001 5.1606498
1.003 5.0320001 -0.33500001 5.141912
0.97000003 5.0310001 -0.33500001 5.1345973
0.95899999 5.0570002 -0.33700001 5.1581488
0.94499999 5.0679998 -0.338 5.1664195
0.935 5.0609999 -0.33700001 5.1576657
0.921 5.0760002 -0.338 5.1699386
0.89300001 5.1030002 -0.34099999 5.1917572
0.875 5.0900002 -0.33899999 5.1757751
0.861 5.1090002 -0.34099999 5.1922526
0.85399997 5.1139998 -0.34099999 5.1960168
0.82300001 5.1290002 -0.34200001 5.2058558
0.80500001 5.118 -0.34099999 5.1921315
0.79100001 5.1300001 -0.34200001 5.201879
0.773 5.1269999 -0.34099999 5.1961465
0.75700003 5.125 -0.34099999 5.1918163
0.73299998 5.131 -0.34099999 5.1942978
0.71899998 5.1490002 -0.34200001 5.2101946
0.70300001 5.151 -0.34200001 5.2099881
0.69 5.177 -0.345 5.2341623
0.67500001 5.1890001 -0.34599999 5.2441459
0.66000003 5.2670002 -0.354 5.3199821
0.639 5.2729998 -0.32100001 5.3212676
0.63 5.3499999 -0.329 5.3970027
0.62800002 5.4039998 -0.33399999 5.4506106
0.611 5.402 -0.33399999 5.4466944
0.59500003 5.4180002 -0.33500001 5.4608583
0.579 5.4320002 -0.336 5.4730945
0.55800003 5.5700002 -0.34900001 5.6087489
0.56999999 5.7909999 -0.37099999 5.8307996
0.542 5.6820002 -0.36000001 5.7191334
0.81400001 8.776 -0.55699998 8.8312521
0 0 0 0
0.74400002 8.776 -0.55599999 8.8250122
0.73199999 8.9729996 -0.57300001 9.0210247
0.71399999 9.1160002 -0.58499998 9.1626129
0.68599999 9.1280003 -0.58600003 9.1724796
0.66500002 9.4499998 -0.61299998 9.4931812
0.64399999 9.5909996 -0.625 9.6328936
0.61699998 9.6479998 -0.63 9.6882143
0.57999998 9.5310001 -0.62 9.5687389
0 0 0 0
0.79900002 15.524 -0.94400001 15.573186
0.64499998 13.448 -0.87900001 13.492123
0.62800002 14.009 -0.92400002 14.053477
0.419 9.6309996 -0.62800002 9.6605434
0.34099999 9.1079998 -0.58200002 9.1329441
0.31 9.0609999 -0.57800001 9.0847073
0.28200001 9.0579996 -0.57800001 9.080802
0.233 8.8039999 -0.55599999 8.8246155
0.20999999 9.0139999 -0.574 9.0346985
0.177 8.7720003 -0.55299997 8.7911959
0.15000001 8.8140001 -0.55699998 8.8328562
0.184 12.489 -0.801 12.516013
0.14399999 12.424 -0.796 12.450307
0.055 9.4790001 -0.61400002 9.4990244
0.026000001 8.21 -0.505 8.2255583
-0 8.2040005 -0.50400001 8.2194672
-0.026000001 8.1960001 -0.50300002 8.2114611
-0.074000001 9.0179996 -0.574 9.0365524
-0.097999997 8.7609997 -0.55199999 8.7789192
-0.127 8.8339996 -0.55800003 8.8525162
-0.205 12.287 -0.78500003 12.313757
-0.244 12.297 -0.78600001 12.32451
-0.28200001 12.294 -0.78500003 12.322264
-0.34200001 12.352 -0.79000002 12.381962
-0.38800001 12.598 -0.81 12.629973
-0.42300001 12.447 -0.79799998 12.479725
-0.454 12.213 -0.77899998 12.246238
-0.491 12.181 -0.77700001 12.215628
-0.55900002 12.428 -0.79699999 12.466069
-0.59899998 12.458 -0.79900002 12.497958
-0.639 12.47 -0.801 12.512028
-0.69999999 12.884 -0.83399999 12.929927
-0.77899998 12.85 -0.83200002 12.900449
-0.82200003 12.887 -0.83499998 12.940158
-0.84200001 12.886 -0.83499998 12.940447
-0.88099998 12.851 -0.83200002 12.908005
-0.96499997 12.893 -0.83600003 12.956063
-1.001 12.826 -0.83099997 12.891813
-1.046 12.885 -0.83600003 12.954391
-1.0650001 12.875 -0.83499998 12.945929
-1.108 12.891 -0.83700001 12.965573
-1.1619999 12.592 -0.81300002 12.67161
-1.202 12.589 -0.81300002 12.672359
-1.239 12.565 -0.81199998 12.652023
-1.2690001 12.458 -0.80299997 12.548184
-1.279 12.367 -0.796 12.458416
-1.374 12.517 -0.80900002 12.618148
-1.438 12.736 -0.82700002 12.843577
-1.488 12.821 -0.83399999 12.933976
-1.535 12.874 -0.83899999 12.992306
-1.495 12.041 -0.77200001 12.157989
-1.52 11.935 -0.764 12.055634
-1.585 12.14 -0.78100002 12.267917
-1.5930001 11.906 -0.76200002 12.036242
-1.674 12.229 -0.78899997 12.368236
-1.66 11.84 -0.75800002 11.979807
-1.665 11.481 -0.73000002 11.624047
-1.698 11.452 -0.72799999 11.600064
-1.753 11.573 -0.73799998 11.728256
-1.761 11.38 -0.72299999 11.538122
-1.793 11.351 -0.72100002 11.514334
-1.9450001 11.96 -0.77100003 12.141624
-1.979 11.933 -0.76899999 12.120408
-1.987 11.747 -0.755 11.937763
-2.0009999 11.606 -0.74400002 11.800711
-2.023 11.519 -0.73699999 11.718493
-2.0420001 11.414 -0.72899997 11.618115
-2.0309999 11.049 -0.69999999 11.255903
-2.027 10.833 -0.68300003 11.042151
-2.026 10.637 -0.667 10.848748
-2.0209999 10.428 -0.65100002 10.641966
-2.013 10.215 -0.634 10.43074
-1.993 9.8629999 -0.60600001 10.080578
-1.989 9.6549997 -0.64600003 9.8788891
-1.988 9.5 -0.63300002 9.7263985
-1.983 9.3339996 -0.61900002 9.5623741
-1.983 9.1899996 -0.60699999 9.4210844
-1.965 8.908 -0.583 9.1407642
-1.965 8.7790003 -0.57200003 9.0143919
-1.965 8.6549997 -0.56199998 8.8930359
-1.962 8.5170002 -0.55000001 8.7573528
-1.96 8.3879995 -0.53899997 8.6307964
-1.949 8.1739998 -0.52100003 8.419282
-1.969 8.1420002 -0.51899999 8.3927641
-2.0009999 8.1630001 -0.52100003 8.4208078
-2.0239999 8.1429996 -0.51999998 8.406867
-2.052 8.1479998 -0.52100003 8.4185534
-2.0769999 8.1379995 -0.52100003 8.4150105
-2.118 8.1379995 -0.52200001 8.4252863
-2.1459999 8.1409998 -0.523 8.4353256
-2.175 8.1490002 -0.52399999 8.4505262
-2.2 8.1409998 -0.52399999 8.4492865
-2.2290001 8.1450005 -0.52499998 8.4607983
-2.2720001 8.1499996 -0.52600002 8.4770956
-2.2980001 8.1450005 -0.52600002 8.4792995
-2.3269999 8.1490002 -0.52700001 8.4911051
-2.349 8.1280003 -0.52600002 8.4769602
-2.3710001 8.0179996 -0.51800001 8.3772478
-2.3829999 8.0120001 -0.51800001 8.3749123
0 0 0 0
-2.4790001 8.1459999 -0.53100002 8.5313959
-2.5039999 8.1359997 -0.53100002 8.5291538
-2.5580001 8.1289997 -0.53200001 8.5385609
-2.586 8.1289997 -0.53200001 8.5469913
-2.6029999 8.1359997 -0.53299999 8.5588665
-2.6300001 8.1339998 -0.53399998 8.56528
-2.6860001 8.132 -0.53500003 8.5808067
-2.7160001 8.1370001 -0.53600001 8.5950403
-2.744 8.1339998 -0.537 8.6011543
-2.7579999 8.1330004 -0.537 8.6046867
-2.7880001 8.1400003 -0.53899997 8.6210823
-2.845 8.1389999 -0.54000002 8.6388044
-2.872 8.132 -0.54000002 8.6411467
-2.898 8.125 -0.54000002 8.6432419
-2.927 8.125 -0.54100001 8.6530704
-2.9230001 7.9970002 -0.53100002 8.5309963
-2.9979999 8.1219997 -0.54299998 8.6746607
-3.0309999 8.1309996 -0.54500002 8.6946611
-3.0569999 8.1239996 -0.54500002 8.6972198
-3.085 8.1199999 -0.546 8.703433
-3.135 8.1370001 -0.54900002 8.737299
-3.155 8.1140003 -0.54699999 8.7229719
-3.1949999 8.1389999 -0.551 8.7609901
-3.217 8.1199999 -0.55000001 8.7513418
-3.204 8.0150003 -0.54100001 8.6486139
-3.2739999 8.1160002 -0.551 8.7688169
-3.27 7.9970002 -0.542 8.6567125
-3.3529999 8.125 -0.55500001 8.8071709
-3.293 7.9120002 -0.53600001 8.586669
-3.352 7.9829998 -0.54299998 8.6751966
-3.4389999 8.1169996 -0.55699998 8.8330431
-3.473 8.1239996 -0.55800003 8.8528223
-3.516 8.1210003 -0.56 8.8671589
-3.5480001 8.1239996 -0.56099999 8.8827019
-3.5799999 8.1260004 -0.56199998 8.8974218
-3.608 8.1219997 -0.56300002 8.9051399
-3.635 8.1140003 -0.56300002 8.9088268
-3.684 8.1199999 -0.565 8.9345102
-3.717 8.125 -0.56699997 8.9528322
-3.734 8.0930004 -0.565 8.930769
-3.7179999 7.9949999 -0.55699998 8.8348055
-3.803 8.1090002 -0.56900001 8.9745445
-3.8340001 8.0749998 -0.56699997 8.956934
-3.3380001 6.9770002 -0.50999999 7.7511859
-3.9130001 8.1099997 -0.57300001 9.0228596
-3.4289999 7.0580001 -0.47299999 7.8611155
-3.8570001 7.869 -0.55199999 8.7807922
-3.526 7.1149998 -0.48199999 7.9553895
-3.506 7.02 -0.47299999 7.8610535
-3.5369999 7.0250001 -0.47499999 7.8795066
-3.5910001 7.0780001 -0.48100001 7.9513979
-3.6329999 7.0500002 -0.48100001 7.9455996
-3.665 7.0570002 -0.48300001 7.9666028
-3.6600001 7.02 -0.479 7.9312949
-4.158 7.908 -0.56699997 8.9524803
-4.119 7.776 -0.55500001 8.817049
-4.3540001 8.0930004 -0.58899999 9.2087402
-4.0939999 7.5560002 -0.53799999 8.6106567
-4.3299999 7.9590001 -0.57800001 9.0790234
-4.132 7.54 -0.53799999 8.6147823
-4.4460001 8.0500002 -0.58899999 9.2150068
-4.434 7.9120002 -0.579 9.0881977
-4.5570002 8.0699997 -0.59600002 9.2868919
-4.5510001 8.0019999 -0.58999997 9.2245169
-4.5570002 7.9829998 -0.58899999 9.2109423
-4.6269999 8.0459995 -0.597 9.3007336
-4.6259999 7.9289999 -0.588 9.1986227
-3.1389999 5.3319998 -0.40700001 6.2007413
-4.776 8.0679998 -0.60500002 9.3951492
-4.5120001 7.598 -0.55900002 8.8543911
-4.54 7.5380001 -0.55500001 8.8170891
-4.6620002 7.6830001 -0.57099998 9.0049314
-4.717 7.7189999 -0.57700002 9.0645447
-4.6659999 7.5830002 -0.56400001 8.9214087
-4.6939998 7.5749998 -0.565 8.9293604
-5.0089998 7.9959998 -0.61000001 9.4550619
-4.8610001 7.7069998 -0.58200002 9.1304922
-4.8039999 7.5650001 -0.56900001 8.9794989
-4.9879999 7.7989998 -0.59500003 9.2767763
-4.7979999 7.4520001 -0.56099999 8.8807564
-4.8530002 7.46 -0.56400001 8.9174719
0 0 0 0
-5.3109999 8.0500002 -0.62800002 9.6645546
-5.1059999 7.6890001 -0.59200001 9.2489147
-4.9949999 7.4710002 -0.57099998 9.005105
-4.98 7.3990002 -0.56599998 8.9367762
-5.415 7.9590001 -0.62599999 9.6467495
-5.4510002 7.9590001 -0.62800002 9.6671333
-5.5089998 7.9889998 -0.63300002 9.7249107
-5.099 7.349 -0.56800002 8.9627132
-5.0869999 7.2820001 -0.56300002 8.9006777
-5.0310001 7.132 -0.54900002 8.7451582
-5.6209998 7.9099998 -0.63300002 9.7244244
-5.1110001 7.1479998 -0.55400002 8.8047218
-5.0300002 6.9899998 -0.53899997 8.6285295
-5.0190001 6.9289999 -0.53399998 8.5724297
-5.0890002 6.9549999 -0.54000002 8.634903
-5.0159998 6.8109999 -0.52600002 8.4750605
-5.0760002 6.848 -0.53200001 8.5407209
-5.152 6.9039998 -0.53899997 8.6312714
-5.1350002 6.8369999 -0.53399998 8.5672607
-5.2480001 6.9190001 -0.54500002 8.7012129
-5.2490001 6.875 -0.54299998 8.6667452
-5.4060001 7.0339999 -0.56199998 8.8891973
-5.4029999 6.9850001 -0.55800003 8.8483896
-5.3260002 6.8410001 -0.54400003 8.6868572
-5.4380002 6.895 -0.55400002 8.798851
-5.388 6.8099999 -0.54500002 8.7007856
-5.3769999 6.7529998 -0.54100001 8.6491508
-5.4359999 6.7820001 -0.546 8.7088308
-5.6370001 6.9419999 -0.56800002 8.9604549
-5.6009998 6.8540001 -0.56 8.8691664
-5.5830002 6.789 -0.55500001 8.8072948
-5.6370001 6.8319998 -0.56 8.8749981
-6.2690001 7.5450001 -0.64200002 9.8305416
-6.2709999 7.5 -0.639 9.7971296
-6.362 7.5120001 -0.64499998 9.8651514
-6.559 7.7069998 -0.611 10.138621
-6.6529999 7.7680001 -0.61900002 10.246336
-6.7249999 7.777 -0.62400001 10.300326
-6.77 7.7800002 -0.62599999 10.332143
-6.8039999 7.7690001 -0.62699997 10.346251
-6.8280001 7.7480001 -0.62699997 10.346314
-6.8930001 7.7729998 -0.63200003 10.408285
-6.9310002 7.7659998 -0.634 10.428397
-6.9949999 7.7639999 -0.63700002 10.469742
-7.0469999 7.7719998 -0.63999999 10.510652
-7.0679998 7.7470002 -0.63999999 10.506295
-7.1230001 7.7579999 -0.64399999 10.551702
-7.177 7.7680001 -0.64700001 10.595743
-7.2490001 7.7719998 -0.65100002 10.647806
-7.3000002 7.777 -0.65499997 10.686475
-7.3200002 7.75 -0.65399998 10.680478
-7.355 7.7389998 -0.65499997 10.696596
-7.3930001 7.73 -0.65700001 10.716389
-7.4310002 7.6960001 -0.65700001 10.718201
-7.4419999 7.6599998 -0.65600002 10.699967
-7.4720001 7.6420002 -0.65600002 10.708001
-7.4699998 7.592 -0.653 10.670791
-7.4780002 7.553 -0.65100002 10.648572
-7.4850001 7.4889998 -0.648 10.608027
-7.5380001 7.4949999 -0.65200001 10.649957
-7.5749998 7.4840002 -0.653 10.668519
-7.605 7.467 -0.65399998 10.678007
-7.704 7.5170002 -0.662 10.784023
-7.7800002 7.52 -0.667 10.840835
-7.8379998 7.5279999 -0.671 10.888309
-7.881 7.5229998 -0.67299998 10.915979
-7.921 7.513 -0.67500001 10.938146
-8.0299997 7.5219998 -0.68199998 11.023906
-8.0649996 7.5079999 -0.68300003 11.039963
-8.2480001 7.6539998 -0.70200002 11.274131
-8.0790005 7.4499998 -0.68000001 11.010684
-8.0050001 7.2880001 -0.667 10.84619
-8.1960001 7.4159999 -0.68599999 11.074388
-8.3330002 7.493 -0.69800001 11.228141
-8.3850002 7.4920001 -0.70099998 11.266308
-8.4350004 7.5139999 -0.70499998 11.318412
-8.5340004 7.507 -0.71100003 11.38814
-8.5909996 7.5089998 -0.71399999 11.432417
-8.6370001 7.5009999 -0.71700001 11.461974
-8.6940002 7.5029998 -0.72000003 11.506478
-8.7740002 7.5009999 -0.72500002 11.566058
-8.8459997 7.5149999 -0.73000002 11.630126
-8.8879995 7.5019999 -0.73199999 11.653856
-9.0869999 7.6220002 -0.75 11.884063
-8.8649998 7.3870001 -0.72500002 11.562077
0 0 0 0
-9.0780001 7.4460001 -0.741 11.764441
-9.7449999 7.9439998 -0.80699998 12.598547
-9.2950001 7.527 -0.75800002 11.984462
-9.6409998 7.7579999 -0.792 12.400108
-9.1199999 7.29 -0.73500001 11.698663
-9.7469997 7.7179999 -0.796 12.458136
-9.9619999 7.8379998 -0.81599998 12.702029
-9.2740002 7.2480001 -0.74299997 11.793755
-9.2010002 7.1440001 -0.73299998 11.671865
-10.037 7.7449999 -0.81599998 12.704024
-9.9130001 7.5749998 -0.80000001 12.501528
-10.177 7.7270002 -0.824 12.804563
-10.199 7.6939998 -0.824 12.802196
-10.54 7.9000001 -0.85600001 13.199786
-10.666 7.9419999 -0.866 13.326248
-10.705 7.9190001 -0.86699998 13.343885
-10.651 7.8010001 -0.85799998 13.230101
-10.739 7.8150001 -0.86400002 13.309652
-10.969 7.9299998 -0.88499999 13.564183
-11.047 7.934 -0.88999999 13.629992
-10.86 7.7220001 -0.86799997 13.353737
-11.117 7.8530002 -0.89099997 13.640058
-11.21 7.8660002 -0.898 13.723865
-11.281 7.8629999 -0.90200001 13.780469
-11.444 7.9239998 -0.91600001 13.949694
-11.578 7.9089999 -0.92400002 14.051908
-11.626 7.9159999 -0.92699999 14.095612
