# .PCD v0.7 - Point Cloud Data file format
VERSION 0.7
FIELDS x y z intensity
SIZE 4 4 4 4
TYPE F F F F
COUNT 1 1 1 1
WIDTH 1431
HEIGHT 1
VIEWPOINT 0 0 0 1 0 0 0
POINTS 1431
DATA ascii
2.503 -8.3109999 -1.658 8.8366671
2.513 -8.2489996 -1.646 8.7789793
2.5139999 -8.1599998 -1.6289999 8.6924925
2.5150001 -8.0699997 -1.6109999 8.6049662
2.517 -7.9460001 -1.587 8.4848557
2.516 -7.8540001 -1.569 8.3950777
2.5120001 -7.7579999 -1.55 8.3005543
2.5139999 -7.6799998 -1.535 8.2254982
2.5190001 -7.6139998 -1.522 8.1630163
0 0 0 0
0 0 0 0
1.902 -5.5089998 -1.127 5.9360604
1.898 -5.4689999 -1.119 5.8961449
1.91 -5.448 -1.1160001 5.8799882
1.934 -5.4089999 -1.109 5.8504286
1.951 -5.4039998 -1.11 5.8516421
1.976 -5.4180002 -1.114 5.8736959
1.979 -5.401 -1.1109999 5.8584609
1.999 -5.402 -1.113 5.8665471
2.0380001 -5.4039998 -1.1160001 5.8823562
2.1140001 -5.5500002 -1.151 6.0494876
2.5120001 -6.5640001 -1.319 7.1509442
2.517 -6.5159998 -1.3099999 7.1070132
2.517 -6.4530001 -1.298 7.0470777
2.52 -6.3429999 -1.277 6.943686
2.513 -6.2950001 -1.267 6.8954682
2.523 -6.263 -1.262 6.8690133
2.5179999 -6.1929998 -1.248 6.8008142
0 0 0 0
0 0 0 0
0 0 0 0
0 0 0 0
0 0 0 0
0 0 0 0
0 0 0 0
0 0 0 0
0 0 0 0
0 0 0 0
0 0 0 0
0 0 0 0
0 0 0 0
2.5910001 -5.5570002 -1.192 6.2461505
2.5910001 -5.5110002 -1.184 6.2037296
2.5940001 -5.473 -1.177 6.169919
2.6040001 -5.4510002 -1.173 6.153873
2.5840001 -5.3439999 -1.151 6.0465026
2.5869999 -5.3080001 -1.1440001 6.0146627
2.592 -5.277 -1.138 5.9883418
2.608 -5.2680001 -1.138 5.9873643
2.6359999 -5.283 -1.1440001 6.013927
2.668 -5.2839999 -1.147 6.0294685
2.688 -5.2810001 -1.148 6.0359101
2.7019999 -5.2690001 -1.148 6.031672
2.7249999 -5.2729998 -1.151 6.0460691
2.7509999 -5.2820001 -1.155 6.0664282
2.7880001 -5.2909999 -1.16 6.0920625
2.812 -5.296 -1.164 6.1081796
2.8280001 -5.2870002 -1.164 6.10777
2.8540001 -5.2950001 -1.168 6.1275253
2.8640001 -5.2740002 -1.165 6.113493
2.9070001 -5.2930002 -1.173 6.1516199
2.9200001 -5.277 -1.171 6.1436448
2.9419999 -5.2779999 -1.174 6.1555605
2.9619999 -5.2740002 -1.175 6.161911
2.9990001 -5.2620001 -1.177 6.1699252
3.0179999 -5.2579999 -1.178 6.1759672
0 0 0 0
3.0569999 -5.2670002 -1.184 6.2039018
3.0739999 -5.2589998 -1.184 6.2055144
0 0 0 0
3.142 -5.2600002 -1.192 6.2418451
0 0 0 0
3.175 -5.2589998 -1.1950001 6.2582531
0 0 0 0
0 0 0 0
0 0 0 0
0 0 0 0
0 0 0 0
0 0 0 0
0 0 0 0
0 0 0 0
0 0 0 0
0 0 0 0
0 0 0 0
0 0 0 0
0 0 0 0
0 0 0 0
0 0 0 0
0 0 0 0
0 0 0 0
0 0 0 0
0 0 0 0
0 0 0 0
0 0 0 0
0 0 0 0
0 0 0 0
0 0 0 0
0 0 0 0
0 0 0 0
0 0 0 0
0 0 0 0
0 0 0 0
0 0 0 0
0 0 0 0
0 0 0 0
0 0 0 0
0 0 0 0
0 0 0 0
0 0 0 0
0 0 0 0
0 0 0 0
4.2199998 -5.2210002 -1.2539999 6.8293304
4.2649999 -5.2249999 -1.26 6.8613739
4.2859998 -5.2179999 -1.262 6.8694954
4.3119998 -5.2160001 -1.265 6.8847818
4.342 -5.2189999 -1.27 6.9067955
4.3649998 -5.2129998 -1.272 6.9171219
4.3909998 -5.211 -1.275 6.9326062
4.4450002 -5.2249999 -1.284 6.9790621
4.4640002 -5.2140002 -1.285 6.9831457
4.4920001 -5.2129998 -1.289 7.0010681
4.5229998 -5.217 -1.293 7.0247035
4.5580001 -5.224 -1.299 7.0535765
4.6020002 -5.224 -1.3049999 7.0831919
4.618 -5.21 -1.3049999 7.0832939
4.6469998 -5.21 -1.309 7.1029706
4.6849999 -5.2189999 -1.3150001 7.1355734
4.73 -5.2199998 -1.322 7.1672158
4.756 -5.2150002 -1.325 7.1813221
4.7789998 -5.2069998 -1.327 7.1911483
4.8140001 -5.2129998 -1.332 7.2197084
4.8499999 -5.2189999 -1.3380001 7.2491865
4.9029999 -5.21 -1.344 7.2794123
4.9349999 -5.2280002 -1.352 7.3153343
4.9650002 -5.2270002 -1.3559999 7.3356318
4.9920001 -5.2220001 -1.359 7.350934
5.059 -5.2259998 -1.369 7.4012647
5.0900002 -5.2259998 -1.373 7.4232273
5.1230001 -5.243 -1.381 7.4593124
5.1360002 -5.224 -1.38 7.4547348
5.21 -5.2340002 -1.392 7.5150862
5.2270002 -5.217 -1.392 7.5150704
5.2579999 -5.2160001 -1.396 7.5367122
5.2940001 -5.2189999 -1.402 7.5650511
5.3140001 -5.2220001 -1.405 7.5816822
5.402 -5.243 -1.421 7.660933
5.46 -5.2649999 -1.433 7.7191525
5.52 -5.29 -1.4450001 7.7809076
5.6420002 -5.375 -1.476 7.9310384
5.6830001 -5.3629999 -1.48 7.9529023
5.7119999 -5.3559999 -1.483 7.969502
5.9980001 -5.5910001 -1.559 8.3466024
6.0190001 -5.5749998 -1.5599999 8.351203
6.112 -5.6269999 -1.581 8.4569044
6.1129999 -5.5739999 -1.574 8.4211473
6.0650001 -5.4949999 -1.556 8.3306894
6.0970001 -5.4889998 -1.5599999 8.3508167
6.0760002 -5.4359999 -1.55 8.2988176
6.092 -5.4159999 -1.549 8.2972841
6.1209998 -5.4070001 -1.552 8.313302
6.1370001 -5.3699999 -1.55 8.3007326
6.1469998 -5.3439999 -1.548 8.2909737
6.138 -5.303 -1.541 8.2566051
6.1430001 -5.2740002 -1.538 8.2411757
6.1479998 -5.244 -1.535 8.2251844
6.1810002 -5.2389998 -1.539 8.2474489
6.2189999 -5.2210002 -1.543 8.2653284
6.2550001 -5.2179999 -1.548 8.2914934
6.2919998 -5.2160001 -1.554 8.3193045
6.3400002 -5.2220001 -1.562 8.3609047
6.3759999 -5.2179999 -1.567 8.3866796
6.4510002 -5.2290001 -1.58 8.4530611
6.5100002 -5.243 -1.592 8.5090313
6.5370002 -5.2319999 -1.595 8.52351
6.559 -5.2160001 -1.596 8.5307894
6.6529999 -5.223 -1.612 8.6104984
6.6820002 -5.2290001 -1.617 8.6374912
6.7270002 -5.23 -1.625 8.674448
6.776 -5.2350001 -1.6339999 8.7171879
6.8540001 -5.2259998 -1.645 8.7746458
0 0 0 0
4.5689998 -3.4349999 -1.104 5.8218379
4.5830002 -3.4230001 -1.104 5.8257732
6.9710002 -5.1950002 -1.661 8.8510895
7.0139999 -5.1599998 -1.663 8.8649511
7.0409999 -5.1459999 -1.666 8.8787699
7.0560002 -5.1389999 -1.668 8.8869953
7.0749998 -5.119 -1.669 8.8907452
7.1040001 -5.073 -1.668 8.8873158
7.1230001 -5.053 -1.669 8.8913155
7.145 -5.0349998 -1.67 8.898941
7.1589999 -5.0110002 -1.67 8.8966455
7.1690001 -5.0009999 -1.67 8.8990707
7.2049999 -4.9590001 -1.671 8.9048271
7.2210002 -4.9359999 -1.671 8.9050093
7.2459998 -4.9200001 -1.674 8.917017
7.2579999 -4.895 -1.673 8.9128284
7.2919998 -4.869 -1.676 8.9268913
7.303 -4.8429999 -1.675 8.9215517
7.3130002 -4.816 -1.673 8.9147491
7.3410001 -4.802 -1.677 8.9309473
7.3579998 -4.7800002 -1.677 8.933135
7.3709998 -4.756 -1.677 8.9310417
7.3969998 -4.723 -1.677 8.9350252
7.4120002 -4.6999998 -1.677 8.9353275
7.428 -4.678 -1.678 8.9372559
7.434 -4.6490002 -1.676 8.9267311
7.4559999 -4.6300001 -1.677 8.9353886
7.4759998 -4.5939999 -1.677 8.9335175
7.4819999 -4.5650001 -1.675 8.9232941
7.5079999 -4.5489998 -1.678 8.9375134
7.5120001 -4.5190001 -1.675 8.9250851
7.5209999 -4.4920001 -1.674 8.9188442
7.5430002 -4.474 -1.676 8.9287462
7.5609999 -4.4359999 -1.675 8.9248219
7.5890002 -4.4200001 -1.679 8.9413853
7.5890002 -4.388 -1.675 8.9248581
7.6059999 -4.3660002 -1.676 8.9287271
7.6350002 -4.3509998 -1.6799999 8.9468889
7.6570001 -4.316 -1.6799999 8.9487381
7.684 -4.3000002 -1.683 8.9647284
7.6960001 -4.2750001 -1.683 8.9630651
7.7129998 -4.2519999 -1.684 8.9669237
7.7420001 -4.237 -1.687 8.9853601
7.7550001 -4.1960001 -1.686 8.9771404
7.783 -4.1799998 -1.689 8.9944544
7.7909999 -4.1529999 -1.688 8.9886837
7.816 -4.1350002 -1.691 9.0026417
7.842 -4.086 -1.691 9.0028801
7.8590002 -4.079 -1.693 9.0148973
8.0930004 -4.1690001 -1.745 9.2694254
6.796 -3.4690001 -1.442 7.7652392
7.901 -3.9760001 -1.691 9.0052128
7.6859999 -3.836 -1.6390001 8.7450447
7.5149999 -3.721 -1.597 8.536479
7.474 -3.6860001 -1.587 8.4832687
7.3189998 -3.5799999 -1.548 8.2933979
6.9229999 -3.358 -1.455 7.83078
6.796 -3.27 -1.424 7.6750436
6.7389998 -3.1900001 -1.406 7.587296
6.7189999 -3.1670001 -1.401 7.5589452
6.7220001 -3.1429999 -1.399 7.5512209
6.7030001 -3.108 -1.393 7.5186648
6.71 -3.086 -1.392 7.5156612
6.6929998 -3.027 -1.3839999 7.4749198
6.697 -3.0039999 -1.383 7.4690371
6.6750002 -2.9809999 -1.377 7.4389591
6.6900001 -2.9630001 -1.378 7.445425
6.6810002 -2.9089999 -1.372 7.4148788
6.6760001 -2.881 -1.369 7.3988714
6.6799998 -2.858 -1.367 7.3931894
6.6700001 -2.8410001 -1.364 7.377037
6.664 -2.8139999 -1.3609999 7.3606939
6.6620002 -2.7639999 -1.3559999 7.3389835
6.6620002 -2.7390001 -1.354 7.3292351
6.6589999 -2.714 -1.352 7.3168287
6.6609998 -2.6900001 -1.35 7.309413
6.677 -2.6600001 -1.351 7.3132157
6.671 -2.6329999 -1.348 7.297399
6.677 -2.612 -1.348 7.2953396
6.6690001 -2.5840001 -1.344 7.2772903
6.671 -2.5610001 -1.3430001 7.2708054
6.6739998 -2.526 -1.341 7.2609386
6.664 -2.4979999 -1.337 7.241303
6.677 -2.4790001 -1.3380001 7.2469316
6.6900001 -2.46 -1.339 7.2526283
6.691 -2.437 -1.3380001 7.2455983
6.6890001 -2.4119999 -1.336 7.2350097
6.7129998 -2.385 -1.3380001 7.2486439
6.7020001 -2.358 -1.334 7.2288675
6.7249999 -2.342 -1.3380001 7.2457457
6.7210002 -2.3169999 -1.335 7.2334332
6.7189999 -2.2920001 -1.3329999 7.2232342
6.7680001 -2.2739999 -1.342 7.2648373
6.7529998 -2.2449999 -1.337 7.2408972
6.777 -2.23 -1.34 7.2592168
6.7820001 -2.2079999 -1.34 7.2571611
6.802 -2.191 -1.3430001 7.2712679
6.8379998 -2.1670001 -1.348 7.2987146
6.8600001 -2.1500001 -1.352 7.3150535
6.908 -2.141 -1.3609999 7.3591213
6.9299998 -2.1240001 -1.364 7.3754168
6.9809999 -2.1159999 -1.373 7.4227314
7.0159998 -2.1029999 -1.3789999 7.4530869
7.073 -2.0840001 -1.3890001 7.5033131
7.1300001 -2.0769999 -1.4 7.5571709
7.1550002 -2.0599999 -1.404 7.5768623
7.2069998 -2.05 -1.414 7.6251388
7.2719998 -2.0439999 -1.426 7.687223
7.3610001 -2.0320001 -1.443 7.7714605
7.369 -2.01 -1.444 7.7735062
7.3790002 -1.987 -1.4450001 7.7772641
7.4660001 -1.9859999 -1.462 7.8627472
7.6739998 -1.9910001 -1.503 8.0692854
7.717 -1.989 -1.512 8.111372
7.7930002 -1.983 -1.527 8.1850395
7.8260002 -1.965 -1.5319999 8.2130709
8.8839998 -2.175 -1.753 9.3128452
8.8620005 -2.1400001 -1.747 9.2825994
8.8500004 -2.108 -1.743 9.2630568
8.8520002 -2.0639999 -1.742 9.2548676
8.8620005 -2.0369999 -1.743 9.2586432
8.8690004 -2.0090001 -1.743 9.2592278
8.8620005 -1.978 -1.74 9.2452765
8.8540001 -1.948 -1.737 9.2306652
8.8599997 -1.905 -1.7359999 9.2272596
8.8450003 -1.873 -1.732 9.2055407
8.8540001 -1.846 -1.732 9.2087383
8.8500004 -1.816 -1.73 9.1985474
8.8620005 -1.789 -1.732 9.205183
8.8850002 -1.765 -1.735 9.2232685
8.8719997 -1.719 -1.7309999 9.2012882
8.875 -1.691 -1.73 9.1988049
8.8590002 -1.659 -1.726 9.1767769
8.8699999 -1.632 -1.727 9.1827469
8.8809996 -1.605 -1.728 9.1888065
8.8730001 -1.5599999 -1.725 9.1727505
8.8660002 -1.531 -1.723 9.1607122
8.8559999 -1.5 -1.72 9.1453342
8.8699999 -1.474 -1.722 9.1550455
8.8629999 -1.444 -1.719 9.1429138
8.8599997 -1.415 -1.7180001 9.1352806
8.8780003 -1.375 -1.72 9.1470165
8.8549995 -1.3430001 -1.714 9.1187973
8.8529997 -1.314 -1.7130001 9.1124401
8.8649998 -1.2869999 -1.715 9.1206255
8.8500004 -1.257 -1.711 9.1011028
8.8479996 -1.214 -1.709 9.0929403
8.8610001 -1.188 -1.711 9.1025372
8.8590002 -1.159 -1.71 9.0966625
8.8610001 -1.131 -1.71 9.0950851
8.8549995 -1.102 -1.7079999 9.0853004
8.8540001 -1.059 -1.706 9.0788345
8.8529997 -1.031 -1.706 9.0746346
8.8660002 -1.0039999 -1.7079999 9.084671
8.8479996 -0.97399998 -1.7029999 9.0628901
8.875 -0.921 -1.7079999 9.0846653
8.8879995 -0.89399999 -1.71 9.095047
8.8760004 -0.87800002 -1.707 9.0811958
8.8710003 -0.85000002 -1.705 9.073267
8.8269997 -0.81699997 -1.6950001 9.025322
8.8430004 -0.76300001 -1.698 9.0368147
8.849 -0.736 -1.699 9.0406361
8.835 -0.72000003 -1.6950001 9.0248909
8.8219995 -0.69099998 -1.692 9.0093288
8.8299999 -0.63599998 -1.693 9.0133038
8.8280001 -0.60799998 -1.692 9.0092239
8.8219995 -0.57999998 -1.691 9.0013084
8.809 -0.565 -1.688 8.9870491
8.8129997 -0.53799999 -1.688 8.9893131
8.7980003 -0.48100001 -1.6849999 8.970808
8.7980003 -0.45300001 -1.684 8.969162
8.7989998 -0.426 -1.684 8.9688196
8.8000002 -0.398 -1.684 8.9685144
8.7799997 -0.38299999 -1.6799999 8.947485
8.7880001 -0.32800001 -1.681 8.9533396
8.7849998 -0.301 -1.6799999 8.9492588
8.7910004 -0.273 -1.681 8.9544392
8.7790003 -0.245 -1.679 8.9414711
8.7740002 -0.204 -1.677 8.9351568
8.7779999 -0.176 -1.678 8.9386768
8.7609997 -0.148 -1.675 8.9209099
8.7729998 -0.121 -1.677 8.9326649
8.7559996 -0.093000002 -1.673 8.9148808
8.7559996 -0.066 -1.673 8.9146404
8.7530003 -0.024 -1.673 8.9114819
8.7510004 0.003 -1.6720001 8.9092989
8.7390003 0.030999999 -1.67 8.8971901
8.7480001 0.057999998 -1.6720001 8.9065399
8.7480001 0.086000003 -1.6720001 8.9067659
8.7399998 0.127 -1.67 8.899024
8.7360001 0.154 -1.669 8.8953342
8.7489996 0.182 -1.6720001 8.9091921
8.7440004 0.20900001 -1.671 8.9046879
8.7469997 0.237 -1.6720001 8.9085217
8.7580004 0.26499999 -1.675 8.9206743
8.7510004 0.30599999 -1.673 8.9147387
8.7539997 0.333 -1.674 8.9188375
8.7370005 0.36000001 -1.671 8.9026413
8.7299995 0.38699999 -1.67 8.8967161
8.7469997 0.41600001 -1.673 8.915267
8.7370005 0.456 -1.6720001 8.9072275
8.7550001 0.48500001 -1.676 8.9271622
8.7399998 0.51200002 -1.673 8.9133987
8.7440004 0.53899997 -1.674 8.9190998
8.7539997 0.56800002 -1.677 8.931263
8.7410002 0.60799998 -1.675 8.920783
8.7410002 0.63599998 -1.675 8.9227352
8.7410002 0.66299999 -1.675 8.9247007
8.7329998 0.69 -1.674 8.918725
8.7390003 0.71899998 -1.676 8.9272652
8.7270002 0.759 -1.674 8.918458
8.7349997 0.787 -1.676 8.9290848
8.7259998 0.81400001 -1.675 8.9225159
8.724 0.84200001 -1.675 8.9231586
8.7150002 0.89600003 -1.674 8.9194345
8.717 0.92400002 -1.675 8.9244328
8.724 0.93900001 -1.677 8.9332094
8.7030001 0.96399999 -1.673 8.9146194
8.7060003 0.99199998 -1.675 8.9209938
8.7089996 1.048 -1.677 8.9306946
8.7040005 1.075 -1.676 8.9288416
8.71 1.09 -1.678 8.936883
8.691 1.115 -1.675 8.9208927
8.717 1.174 -1.681 8.9548941
8.7019997 1.2 -1.679 8.9433689
8.7150002 1.229 -1.683 8.960701
8.7250004 1.2589999 -1.6849999 8.9749622
8.7110004 1.271 -1.683 8.9626703
8.7150002 1.327 -1.6849999 8.9750423
8.7049999 1.354 -1.684 8.9691801
8.7119999 1.383 -1.687 8.980958
8.7139997 1.411 -1.688 8.9874392
8.7110004 1.4529999 -1.689 8.9914103
8.71 1.4809999 -1.689 8.9950085
8.6940002 1.506 -1.687 8.9832983
8.71 1.5369999 -1.691 9.0047731
8.7229996 1.568 -1.6950001 9.0234346
8.7159996 1.595 -1.6950001 9.0214024
8.7180004 1.638 -1.697 9.0314112
8.7030001 1.663 -1.6950001 9.0211315
8.6940002 1.6900001 -1.694 9.0172825
8.7130003 1.722 -1.699 9.0425806
8.6960001 1.747 -1.697 9.0306273
8.6890001 1.774 -1.696 9.028966
8.684 1.816 -1.697 9.032692
8.6789999 1.8430001 -1.697 9.0333548
8.6630001 1.868 -1.6950001 9.0227499
8.6750002 1.899 -1.699 9.0414839
8.6800003 1.929 -1.701 9.0530024
8.6709995 1.97 -1.701 9.0532055
8.665 1.997 -1.701 9.0533772
8.6599998 2.0250001 -1.702 9.0550003
8.6610003 2.0539999 -1.7029999 9.0626736
8.6630001 2.0829999 -1.705 9.0715761
8.6490002 2.122 -1.704 9.0670671
8.6479998 2.151 -1.705 9.0731325
8.6619997 2.1830001 -1.71 9.0950441
8.651 2.21 -1.709 9.0909061
8.6330004 2.234 -1.706 9.0790901
8.6429996 2.28 -1.711 9.1009541
8.6400003 2.3080001 -1.712 9.1053514
8.6420002 2.3380001 -1.714 9.1152735
8.6210003 2.3610001 -1.711 9.1007414
8.6190004 2.4189999 -1.714 9.1146326
8.6140003 2.447 -1.714 9.1173792
8.6269999 2.4649999 -1.7180001 9.1352549
8.6230001 2.493 -1.7180001 9.1390753
8.6149998 2.52 -1.7180001 9.138936
8.6199999 2.5799999 -1.723 9.1613064
8.6079998 2.6059999 -1.722 9.1571932
8.6040001 2.6199999 -1.722 9.1574287
8.6029997 2.6489999 -1.724 9.165205
8.573 2.6989999 -1.721 9.1511078
8.5190001 2.7119999 -1.711 9.1025181
8.4359999 2.7149999 -1.6950001 9.022768
8.3610001 2.72 -1.681 8.9515629
8.2869997 2.711 -1.666 8.8769045
8.1359997 2.7179999 -1.637 8.7327995
8.0740004 2.7260001 -1.625 8.6753206
8.0469999 2.7449999 -1.6210001 8.6554537
8.0299997 2.7679999 -1.619 8.6466112
8.0299997 2.7820001 -1.62 8.6512899
8.0100002 2.8310001 -1.62 8.6486454
7.9879999 2.852 -1.617 8.6346245
7.9809999 2.878 -1.617 8.6367779
7.974 2.9030001 -1.618 8.6388664
7.9590001 2.9260001 -1.617 8.6326036
7.9510002 2.9660001 -1.618 8.6390676
7.947 2.993 -1.619 8.6448841
7.9380002 3.0179999 -1.619 8.6453066
7.9299998 3.043 -1.619 8.6467285
7.9200001 3.0680001 -1.619 8.6463976
7.9130001 3.108 -1.6210001 8.654645
7.9029999 3.1329999 -1.6210001 8.654521
7.8990002 3.1600001 -1.622 8.6608715
7.8850002 3.184 -1.6210001 8.6567154
7.8839998 3.2119999 -1.624 8.6667051
7.869 3.2349999 -1.622 8.6612511
7.8429999 3.267 -1.62 8.6492968
7.8400002 3.2950001 -1.6210001 8.657383
7.829 3.319 -1.6210001 8.6565952
7.8299999 3.349 -1.624 8.6696062
7.8060002 3.368 -1.6210001 8.6547499
7.796 3.4070001 -1.622 8.6611862
7.776 3.427 -1.62 8.6507168
7.756 3.448 -1.618 8.640727
7.737 3.4679999 -1.6160001 8.6313181
7.7199998 3.49 -1.615 8.624774
7.7199998 3.5190001 -1.617 8.6369238
7.6929998 3.5510001 -1.615 8.6255474
7.6849999 3.576 -1.6160001 8.628931
7.6810002 3.6040001 -1.617 8.6372032
7.6339998 3.6110001 -1.609 8.5968695
7.638 3.6570001 -1.614 8.6207705
7.605 3.671 -1.609 8.5965776
7.5970001 3.697 -1.61 8.6008329
7.5890002 3.7219999 -1.6109999 8.6047392
7.5580001 3.737 -1.607 8.5831804
7.533 3.783 -1.6059999 8.5811663
7.5229998 3.793 -1.605 8.5766191
7.5040002 3.813 -1.604 8.5686522
7.487 3.8340001 -1.603 8.5629625
7.4559999 3.878 -1.601 8.5553503
7.4380002 3.898 -1.6 8.5485811
7.4310002 3.9089999 -1.599 8.5473299
7.4219999 3.934 -1.6 8.5511656
7.3969998 3.951 -1.597 8.536768
7.3670001 3.9949999 -1.596 8.5311155
7.3439999 4.0120001 -1.594 8.5188799
7.3280001 4.033 -1.5930001 8.5148296
7.3200002 4.0440001 -1.5930001 8.5131655
7.3119998 4.0700002 -1.594 8.5188656
7.283 4.1139998 -1.5930001 8.5149717
7.2670002 4.1350002 -1.592 8.5112858
7.2540002 4.1570001 -1.592 8.5109129
7.2420001 4.1659999 -1.591 8.5049047
7.211 4.2080002 -1.59 8.499052
7.2010002 4.2329998 -1.591 8.5031738
7.1810002 4.2519999 -1.589 8.4953623
7.1739998 4.2779999 -1.591 8.5028725
7.152 4.296 -1.589 8.4930344
7.1339998 4.3299999 -1.589 8.495162
7.1230001 4.355 -1.59 8.4988976
7.1100001 4.3769999 -1.59 8.4993134
7.1030002 4.4039998 -1.591 8.5075912
7.085 4.4239998 -1.591 8.5029573
7.0739999 4.4629998 -1.5930001 8.5145454
7.0570002 4.4829998 -1.592 8.5107574
7.04 4.5040002 -1.591 8.5075788
7.0300002 4.5289998 -1.5930001 8.5129547
7.013 4.5489998 -1.592 8.509409
7.0019999 4.573 -1.5930001 8.5134001
6.9829998 4.6079998 -1.5930001 8.5166664
6.9689999 4.6300001 -1.5930001 8.5171309
6.9640002 4.658 -1.596 8.528861
6.9530001 4.6820002 -1.597 8.5332136
6.941 4.7059999 -1.597 8.5366459
6.9159999 4.737 -1.597 8.5335007
6.8979998 4.756 -1.596 8.5293112
6.8889999 4.7820001 -1.597 8.5367584
6.8759999 4.8049998 -1.598 8.5393801
6.862 4.8280001 -1.598 8.541091
6.8470001 4.8660002 -1.6 8.5509863
6.8330002 4.888 -1.601 8.5525227
6.823 4.9130001 -1.602 8.5590487
6.8169999 4.941 -1.604 8.5707521
6.8010001 4.9629998 -1.604 8.5707512
6.7969999 5.0089998 -1.609 8.5952406
6.7870002 5.0349998 -1.6109999 8.6029015
6.7719998 5.0560002 -1.6109999 8.6033974
6.7589998 5.0799999 -1.6109999 8.6073112
6.7509999 5.1069999 -1.613 8.6173792
6.7319999 5.1599998 -1.617 8.634819
6.7290001 5.1739998 -1.618 8.6410437
6.724 5.2030001 -1.6210001 8.6551151
6.7090001 5.2259998 -1.6210001 8.6573315
6.6729999 5.2649999 -1.6210001 8.6531382
6.6529999 5.2839999 -1.62 8.6491308
6.6139998 5.27 -1.612 8.6090908
6.573 5.2709999 -1.605 8.5769339
6.54 5.2779999 -1.601 8.5552378
6.448 5.2719998 -1.586 8.4785662
6.4200001 5.283 -1.582 8.4634047
6.382 5.2849998 -1.577 8.4349318
6.349 5.2750001 -1.5700001 8.4024
6.3070002 5.2740002 -1.564 8.3689566
6.2410002 5.2859998 -1.5549999 8.3252563
6.2410002 5.3189998 -1.559 8.3469954
6.2340002 5.348 -1.562 8.3608437
6.2509999 5.3790002 -1.569 8.3946657
6.158 5.3670001 -1.553 8.3148947
6.1719999 5.4130001 -1.561 8.3564863
6.2220001 5.4910002 -1.579 8.4473438
6.2449999 5.5469999 -1.591 8.5029707
6.2160001 5.573 -1.59 8.4985342
6.2379999 5.6279998 -1.601 8.5527906
6.1560001 5.5900002 -1.5829999 8.4646521
6.2270002 5.6900001 -1.607 8.5868549
6.2090001 5.7090001 -1.607 8.5864325
6.2329998 5.7670002 -1.619 8.6446371
6.2069998 5.7979999 -1.619 8.6466646
6.1989999 5.8270001 -1.622 8.6609707
6.2080002 5.8720002 -1.63 8.6992273
6.197 5.8979998 -1.632 8.709342
6.191 5.9289999 -1.636 8.7268562
6.191 5.967 -1.641 8.7536535
6.165 5.9980001 -1.642 8.7566776
6.1389999 6.0110002 -1.64 8.7469444
6.132 6.0409999 -1.643 8.7632504
6.0970001 6.0450001 -1.638 8.7406225
6.0780001 6.0640001 -1.638 8.740551
6.027 6.0710001 -1.632 8.7089148
6.0079999 6.0900002 -1.632 8.7090521
6.0079999 6.1279998 -1.638 8.7367887
5.967 6.1240001 -1.631 8.7045174
5.9450002 6.1399999 -1.63 8.7005472
5.9289999 6.1620002 -1.631 8.705369
5.875 6.164 -1.624 8.6687889
5.8379998 6.164 -1.619 8.6428175
5.0479999 5.369 -1.3890001 7.4991856
5.0149999 5.368 -1.3839999 7.4753661
4.9980001 5.3829999 -1.3839999 7.4747677
4.9699998 5.4039998 -1.383 7.4710646
4.9320002 5.3959999 -1.377 7.4389229
4.8930001 5.3870001 -1.37 7.4052763
5.6989999 6.348 -1.627 8.6846313
5.6799998 6.368 -1.628 8.6870136
5.6690001 6.375 -1.627 8.6847744
0 0 0 0
5.6160002 6.3959999 -1.623 8.6650105
5.5339999 6.3839998 -1.61 8.6007385
5.5489998 6.441 -1.6210001 8.6547976
5.5609999 6.4749999 -1.628 8.6891155
5.54 6.493 -1.628 8.6891327
5.5079999 6.4970002 -1.624 8.6710119
5.4829998 6.5489998 -1.6289999 8.6951895
5.448 6.5500002 -1.625 8.6731672
5.4530001 6.5760002 -1.63 8.6968899
5.369 6.5159998 -1.609 8.5949574
5.3889999 6.6259999 -1.6289999 8.6947584
5.3759999 6.652 -1.632 8.707118
5.3280001 6.6350002 -1.623 8.6628485
0 0 0 0
5.3070002 6.6729999 -1.626 8.6796923
5.2540002 6.6919999 -1.622 8.6613083
5.2189999 6.691 -1.618 8.6385975
0 0 0 0
5.1890001 6.7399998 -1.622 8.6593418
5.1599998 6.7449999 -1.619 8.6453333
5.125 6.7659998 -1.618 8.6407347
5.105 6.7839999 -1.619 8.6431961
5.0190001 6.7140002 -1.597 8.5333796
0 0 0 0
5.0609999 6.8579998 -1.626 8.6769667
5.0679998 6.9359999 -1.6390001 8.7452288
5.0689998 6.9829998 -1.647 8.784626
5.0739999 7.0359998 -1.656 8.8313704
5.0999999 7.118 -1.673 8.9148664
0 0 0 0
5.1059999 7.2220001 -1.691 9.0048876
5.1160002 7.3080001 -1.707 9.0826302
5.0279999 7.2309999 -1.684 8.9668274
0 0 0 0
5.1059999 7.4419999 -1.728 9.1891556
5.1009998 7.4850001 -1.735 9.2225618
5.098 7.5300002 -1.743 9.2589712
5.0780001 7.579 -1.749 9.2890434
0 0 0 0
0 0 0 0
5.105 7.829 -1.794 9.5169687
5.1209998 7.8790002 -1.8049999 9.5687675
5.1160002 7.927 -1.813 9.607172
5.1110001 7.9720001 -1.8200001 9.6430035
5.1209998 8.0439997 -1.8329999 9.7103271
5.092 8.1090002 -1.841 9.7505713
5.1329999 8.2040005 -1.862 9.8549662
5.0609999 8.1450005 -1.844 9.7649937
5.105 8.2740002 -1.872 9.900732
5.1149998 8.3479996 -1.886 9.9704218
5.1079998 8.4540005 -1.903 10.058986
5.0489998 8.4160004 -1.891 9.9948664
5.1069999 8.5439997 -1.919 10.137255
5.1160002 8.6199999 -1.934 10.208733
0 0 0 0
5.1139998 8.8030005 -1.966 10.36875
5.0960002 8.8360004 -1.97 10.388697
5.1230001 8.9790001 -1.998 10.528988
5.0229998 8.8690004 -1.9680001 10.380882
5.0469999 8.9770002 -1.99 10.488986
5.0159998 8.9879999 -1.989 10.483345
5.0170002 9.0559998 -2.0009999 10.54445
5.0240002 9.1359997 -2.016 10.619385
5.0289998 9.2489996 -2.0369999 10.723068
5.0310001 9.3210001 -2.05 10.788629
4.98 9.2950001 -2.0409999 10.740722
5.0019999 9.408 -2.063 10.852946
4.9710002 9.4200001 -2.062 10.848922
4.9499998 9.4530001 -2.066 10.868766
4.9130001 9.4899998 -2.069 10.88478
0 0 0 0
4.8699999 9.5539999 -2.0769999 10.922899
4.8379998 9.566 -2.076 10.918991
4.8150001 9.632 -2.086 10.968639
4.7839999 9.6450005 -2.086 10.966498
0 0 0 0
4.7470002 9.7229996 -2.0969999 11.021258
4.7249999 9.7550001 -2.1010001 11.040827
4.6929998 9.7679996 -2.0999999 11.038481
4.6729999 9.8059998 -2.1059999 11.0648
4.638 9.8509998 -2.1110001 11.090967
4.6149998 9.8809996 -2.1140001 11.108617
4.5890002 9.9060001 -2.1170001 11.120677
4.5739999 9.9560003 -2.125 11.160602
4.5450001 9.9759998 -2.1259999 11.166802
4.5120001 10.028 -2.1329999 11.201278
4.494 10.072 -2.1400001 11.234803
4.46 10.081 -2.1389999 11.229136
0 0 0 0
2.3039999 5.3169999 -1.12 5.9019742
2.2920001 5.335 -1.123 5.914103
2.273 5.335 -1.1210001 5.9063859
2.26 5.3509998 -1.123 5.9162426
2.2190001 5.3249998 -1.115 5.8756118
2.191 5.303 -1.108 5.8437963
2.171 5.3010001 -1.1059999 5.8341303
2.154 5.3080001 -1.1059999 5.8341937
2.1099999 5.2940001 -1.1 5.8041825
2.1029999 5.3260002 -1.1059999 5.8319912
2.0880001 5.3130002 -1.102 5.8139591
2.072 5.3200002 -1.102 5.8146362
2.0550001 5.3260002 -1.102 5.8140955
2.0079999 5.302 -1.0930001 5.7738996
2.003 5.3400002 -1.101 5.808598
1.9809999 5.3330002 -1.098 5.7940364
1.969 5.3270001 -1.096 5.784039
1.9220001 5.3010001 -1.087 5.7424955
1.89 5.2620001 -1.077 5.6939154
1.862 5.237 -1.0700001 5.6602221
1.835 5.2129998 -1.063 5.6278381
1.811 5.2220001 -1.063 5.628408
1.791 5.2179999 -1.061 5.6179113
1.765 5.1939998 -1.054 5.5860338
1.742 5.1789999 -1.049 5.5639019
1.729 5.1939998 -1.051 5.5741973
1.709 5.1880002 -1.049 5.5620527
1.678 5.178 -1.045 5.5425076
1.6619999 5.1830001 -1.045 5.5423603
1.653 5.2119999 -1.05 5.5677509
1.632 5.2010002 -1.046 5.5504904
1.617 5.2090001 -1.0470001 5.5537896
1.6059999 5.2350001 -1.052 5.5759454
1.586 5.2579999 -1.0549999 5.5924044
1.58 5.2979999 -1.063 5.6298466
1.554 5.2709999 -1.056 5.5958462
1.53 5.25 -1.05 5.568294
1.522 5.283 -1.057 5.5985556
1.487 5.2540002 -1.049 5.5602236
1.4809999 5.296 -1.057 5.5998416
1.443 5.224 -1.04 5.5185165
1.4220001 5.2129998 -1.036 5.5018859
1.426 5.2930002 -1.053 5.5819473
1.421 5.3410001 -1.063 5.6280985
1.393 5.3379998 -1.061 5.6178656
1.383 5.369 -1.067 5.6460018
1.3559999 5.3340001 -1.058 5.6044316
1.337 5.3280001 -1.056 5.5937724
1.3150001 5.348 -1.059 5.6081915
1.308 5.3920002 -1.067 5.6500459
1.312 5.4860001 -1.087 5.7444854
1.263 5.3520002 -1.057 5.5996718
1.257 5.4060001 -1.068 5.6520362
1.164 5.145 -1.0089999 5.3706613
1.155 5.1409998 -1.007 5.3645086
1.138 5.1420002 -1.007 5.3618336
1.122 5.1479998 -1.007 5.3642182
1.091 5.1599998 -1.0089999 5.3697262
1.099 5.2810001 -1.034 5.4923511
1.089 5.3169999 -1.041 5.526309
1.0829999 5.3340001 -1.045 5.5422444
1.04 5.289 -1.033 5.4883704
1.041 5.3839998 -1.054 5.5840893
1.03 5.4239998 -1.062 5.6221452
1.028 5.5100002 -1.08 5.7081771
1.0190001 5.506 -1.0779999 5.7023225
0.97500002 5.4619999 -1.067 5.6500049
0.94700003 5.3969998 -1.053 5.5797153
0.93000001 5.402 -1.053 5.5816946
0.912 5.3979998 -1.051 5.5744724
0.89399999 5.395 -1.05 5.5684614
0.866 5.3850002 -1.0470001 5.5537729
0.84799999 5.3779998 -1.045 5.5438266
0.833 5.3920002 -1.048 5.5557051
0.81400001 5.382 -1.045 5.5426116
0.79500002 5.3709998 -1.0420001 5.5286007
0.77100003 5.3800001 -1.043 5.5341387
0.75400001 5.388 -1.044 5.5397649
0.73400003 5.3670001 -1.039 5.5157018
0.71499997 5.3520002 -1.036 5.4980383
0.70099998 5.3779998 -1.041 5.5224962
0.68699998 5.401 -1.045 5.5438972
0.65899998 5.381 -1.04 5.5200582
0.63700002 5.336 -1.03 5.4717059
0.62199998 5.362 -1.035 5.4962854
0.60299999 5.336 -1.029 5.4676638
0.58499998 5.3309999 -1.028 5.460638
0.565 5.2969999 -1.02 5.423821
0.54799998 5.382 -1.038 5.5085092
0.52999997 5.3779998 -1.036 5.502461
0.51200002 5.362 -1.033 5.484549
0.49200001 5.3260002 -1.025 5.4460044
0.477 5.3509998 -1.03 5.4700665
0.45100001 5.3379998 -1.026 5.4543853
0.43399999 5.3390002 -1.026 5.4539852
0.41499999 5.3169999 -1.021 5.4300237
0.40000001 5.3439999 -1.027 5.45647
0.36700001 5.348 -1.027 5.4580698
0.35800001 5.3369999 -1.025 5.4463158
0.34200001 5.3610001 -1.03 5.4697518
0.32699999 5.3979998 -1.0369999 5.5064235
0.31 5.3829999 -1.034 5.4901681
0.27399999 5.342 -1.025 5.4463439
0.25600001 5.309 -1.017 5.4115901
0.248 5.3270001 -1.021 5.4296293
0.229 5.2810001 -1.011 5.3817768
0.19599999 5.2789998 -1.01 5.3783226
0.182 5.3590002 -1.028 5.459743
0.16599999 5.3850002 -1.033 5.4856973
0.156 5.3390002 -1.023 5.4383626
0.14 5.3470001 -1.025 5.4461579
0.106 5.3460002 -1.024 5.4442201
0.089000002 5.3460002 -1.024 5.4439154
0.071999997 5.3660002 -1.028 5.4640579
0.056000002 5.3740001 -1.03 5.4721031
0.029999999 5.3410001 -1.023 5.4381719
0.014 5.3330002 -1.021 5.4298735
-0.003 5.349 -1.025 5.4463229
-0.02 5.323 -1.0190001 5.4196944
-0.037 5.3590002 -1.027 5.4566455
-0.052999999 5.323 -1.0190001 5.4199166
-0.079000004 5.3390002 -1.023 5.4366989
-0.094999999 5.3280001 -1.02 5.4255886
-0.113 5.3520002 -1.025 5.4504404
-0.131 5.3940001 -1.035 5.4939623
-0.148 5.4070001 -1.038 5.5077214
-0.16500001 5.4029999 -1.0369999 5.5040894
-0.189 5.3769999 -1.031 5.4782124
-0.206 5.3639998 -1.029 5.4656906
-0.223 5.3769999 -1.0319999 5.4796786
-0.23999999 5.3769999 -1.0319999 5.4803967
-0.257 5.3759999 -1.0319999 5.4801869
-0.28099999 5.3470001 -1.026 5.4517927
-0.29699999 5.335 -1.023 5.440309
-0.31400001 5.336 -1.024 5.4424324
-0.33000001 5.3330002 -1.023 5.4402499
-0.34599999 5.316 -1.02 5.4240179
-0.36199999 5.2989998 -1.017 5.4078398
-0.38699999 5.302 -1.017 5.4125099
-0.403 5.296 -1.017 5.4078012
-0.419 5.2800002 -1.013 5.3926001
-0.43799999 5.309 -1.02 5.423811
-0.458 5.257 -1.0089999 5.3725128
-0.47400001 5.2490001 -1.008 5.3658867
-0.498 5.3200002 -1.023 5.4403067
-0.514 5.3099999 -1.022 5.4318304
-0.53399998 5.348 -1.03 5.4723997
-0.56199998 5.2919998 -1.0190001 5.4184375
-0.56900001 5.2789998 -1.016 5.4059095
-0.588 5.2989998 -1.021 5.4284053
-0.60900003 5.336 -1.029 5.4683285
-0.62800002 5.3449998 -1.0319999 5.4798203
-0.65899998 5.3260002 -1.028 5.4641871
-0.67699999 5.3309999 -1.03 5.4716349
-0.68699998 5.342 -1.033 5.4841609
0 0 0 0
0 0 0 0
-0.75300002 5.3270001 -1.031 5.4778557
-0.76999998 5.329 -1.0319999 5.4823503
-0.77999997 5.3330002 -1.033 5.4878392
-0.81699997 5.349 -1.038 5.5096946
0 0 0 0
0 0 0 0
-0.412 2.5599999 -0.49900001 2.6405199
-0.41999999 2.559 -0.49900001 2.640811
-0.90200001 5.2979999 -1.03 5.4720478
-0.91799998 5.2870002 -1.028 5.4636874
-0.93400002 5.2810001 -1.028 5.4605956
-0.949 5.2719998 -1.026 5.4541044
-0.97399998 5.3109999 -1.036 5.4980626
-0.99699998 5.3449998 -1.043 5.5363235
-1.026 5.3590002 -1.048 5.5560656
-1.049 5.3850002 -1.054 5.5865502
-1.059 5.349 -1.0470001 5.5524311
-1.073 5.3299999 -1.043 5.5360703
-1.089 5.3249998 -1.043 5.5343828
-1.107 5.3249998 -1.044 5.5381413
-1.147 5.3889999 -1.059 5.6105623
-1.156 5.3520002 -1.052 5.5755668
-1.179 5.3759999 -1.058 5.6045322
-1.188 5.3369999 -1.05 5.5675321
-1.2 5.3130002 -1.046 5.5463581
-1.227 5.3169999 -1.048 5.5564666
-1.251 5.3390002 -1.054 5.5839806
-1.266 5.3319998 -1.053 5.5804825
0 0 0 0
-0.82999998 3.3729999 -0.65100002 3.5340953
-0.81 3.233 -0.64899999 3.395525
-0.81300002 3.204 -0.64300001 3.3674967
-0.815 3.1730001 -0.63599998 3.337162
-0.81599998 3.135 -0.62699997 3.2995775
-0.82300001 3.1210001 -0.625 3.287643
-0.824 3.089 -0.61699998 3.2560077
-0.824 3.0339999 -0.60500002 3.2015865
-0.82599998 3.003 -0.59899998 3.1716063
-0.82599998 2.967 -0.58999997 3.1358356
-0.83200002 2.9530001 -0.588 3.1238081
-0.838 2.941 -0.58499998 3.1135108
-0.84100002 2.9000001 -0.57599998 3.0739319
-0.84500003 2.8800001 -0.57200003 3.0554228
-0.84100002 2.8369999 -0.56199998 3.0119252
-0.84899998 2.8280001 -0.56099999 3.0055127
-0.85500002 2.786 -0.55199999 2.9660621
-0.85799998 2.7809999 -0.551 2.9620476
-0.85799998 2.7520001 -0.54500002 2.9337165
-0.86500001 2.7149999 -0.537 2.8996239
-0.866 2.6900001 -0.53200001 2.8756008
0 0 0 0
-0.86799997 2.6259999 -0.51800001 2.8138273
-0.86699998 2.596 -0.51099998 2.784246
-0.87699997 2.599 -0.51200002 2.7903538
0 0 0 0
-0.86799997 2.517 -0.51599997 2.7120044
-0.87300003 2.507 -0.514 2.7039552
-0.87 2.484 -0.50800002 2.680526
-0.86900002 2.4319999 -0.49700001 2.6299796
-0.87400001 2.4200001 -0.49399999 2.6199834
-0.87599999 2.4030001 -0.491 2.6043937
-0.88 2.3889999 -0.48800001 2.5922701
-0.88700002 2.3970001 -0.49000001 2.6023986
-0.88499999 2.346 -0.479 2.5527205
-0.88800001 2.3299999 -0.47499999 2.5383201
-0.89399999 2.3239999 -0.47400001 2.5347362
-0.88999999 2.2920001 -0.46700001 2.5026894
-0.89700001 2.2869999 -0.46599999 2.5004265
-0.89399999 2.2690001 -0.46200001 2.4821446
-0.89899999 2.24 -0.456 2.4563665
-0.89999998 2.223 -0.45199999 2.4404986
-0.90399998 2.2130001 -0.45100001 2.4326911
-0.90399998 2.1919999 -0.44600001 2.412674
-0.90399998 2.171 -0.44100001 2.3926842
-0.91299999 2.1630001 -0.44 2.3886688
-0.912 2.142 -0.43599999 2.3685446
-0.91600001 2.132 -0.43399999 2.3606856
0 0 0 0
0 0 0 0
0 0 0 0
0 0 0 0
0 0 0 0
0 0 0 0
0 0 0 0
0 0 0 0
0 0 0 0
0 0 0 0
0 0 0 0
0 0 0 0
-0.94099998 1.955 -0.421 2.2101464
0 0 0 0
-0.954 1.942 -0.419 2.2038696
-0.96200001 1.943 -0.41999999 2.2084141
-0.96799999 1.9400001 -0.41999999 2.2083986
-0.97399998 1.923 -0.417 2.1955624
-0.977 1.92 -0.417 2.1942694
-0.97799999 1.908 -0.414 2.1836538
-0.98100001 1.9 -0.41299999 2.1778269
-1.002 1.909 -0.417 2.195945
-1.0089999 1.909 -0.41800001 2.1993377
-1.011 1.898 -0.41600001 2.1903381
-1.001 1.872 -0.40900001 2.1618664
-1.001 1.859 -0.40599999 2.1500506
-1.0089999 1.846 -0.40400001 2.1421981
-1.024 1.86 -0.40900001 2.1622806
-1.028 1.853 -0.40799999 2.1579752
-1.031 1.845 -0.40700001 2.1523557
-1.0369999 1.835 -0.405 2.1463037
-1.0369999 1.823 -0.403 2.1356747
-1.05 1.832 -0.40599999 2.1502464
-1.059 1.8329999 -0.40700001 2.1556945
-1.0650001 1.83 -0.40700001 2.1561017
-1.075 1.8279999 -0.40799999 2.1595538
-1.072 1.8099999 -0.40400001 2.1420784
-1.085 1.818 -0.40700001 2.1559217
-1.084 1.8049999 -0.405 2.1440861
-1.089 1.8 -0.40400001 2.1422269
-1.1059999 1.814 -0.40900001 2.163588
-1.098 1.783 -0.40200001 2.1322048
-1.118 1.802 -0.40799999 2.1595352
-1.117 1.789 -0.40599999 2.1478002
-1.105 1.758 -0.39700001 2.1140478
-1.113 1.758 -0.398 2.118428
-1.127 1.767 -0.40200001 2.1340153
-1.1390001 1.768 -0.40400001 2.1415792
-1.146 1.766 -0.405 2.143851
-1.146 1.755 -0.40200001 2.1342318
-1.154 1.7539999 -0.403 2.1379056
-1.168 1.763 -0.40700001 2.1536114
-1.184 1.7690001 -0.41 2.1677909
-1.191 1.767 -0.41100001 2.1701822
-1.192 1.757 -0.40900001 2.1622198
-1.199 1.756 -0.41 2.1654646
-1.214 1.765 -0.414 2.1818378
-1.219 1.755 -0.412 2.1761732
-1.245 1.779 -0.421 2.2118108
-1.233 1.752 -0.414 2.1820149
-1.243 1.7539999 -0.41600001 2.1896622
-1.255 1.758 -0.41800001 2.2000711
-1.27 1.756 -0.41999999 2.2074502
-1.278 1.761 -0.42199999 2.2164135
0 0 0 0
-1.286 1.749 -0.421 2.2113428
0 0 0 0
-1.306 1.752 -0.42399999 2.2259641
0 0 0 0
0 0 0 0
0 0 0 0
0 0 0 0
0 0 0 0
0 0 0 0
0 0 0 0
0 0 0 0
0 0 0 0
-1.479 1.846 -0.44499999 2.4069028
0 0 0 0
-1.5039999 1.841 -0.447 2.418906
-1.5140001 1.842 -0.449 2.426265
-1.515 1.837 -0.44800001 2.4229112
-1.545 1.85 -0.45500001 2.4528656
-1.522 1.8099999 -0.44499999 2.4063683
-1.543 1.823 -0.44999999 2.4303658
-1.5420001 1.811 -0.44800001 2.4203696
-1.58 1.8380001 -0.45899999 2.4668453
-1.571 1.817 -0.45300001 2.4443278
-1.58 1.8150001 -0.454 2.4488246
-1.598 1.825 -0.45899999 2.4687872
-1.5829999 1.796 -0.45199999 2.4363515
-1.595 1.798 -0.454 2.4460058
-1.626 1.816 -0.46200001 2.4809628
-1.6210001 1.799 -0.458 2.4645092
-1.6289999 1.7970001 -0.45899999 2.4685078
-1.658 1.818 -0.46700001 2.5044315
-1.654 1.801 -0.46399999 2.488898
-1.6619999 1.799 -0.465 2.492964
-1.682 1.804 -0.46900001 2.5106773
-1.684 1.794 -0.46700001 2.5044723
-1.7029999 1.803 -0.472 2.5246389
-1.704 1.793 -0.47099999 2.5179963
-1.722 1.801 -0.47499999 2.5366337
-1.738 1.801 -0.47799999 2.5480835
-1.745 1.7970001 -0.47799999 2.5500429
-1.767 1.809 -0.484 2.5746894
-1.763 1.793 -0.47999999 2.5599644
-1.798 1.806 -0.48800001 2.5947223
-1.795 1.7970001 -0.48699999 2.5861945
-1.8049999 1.796 -0.48800001 2.5926404
-1.819 1.798 -0.491 2.6043513
-1.841 1.798 -0.49399999 2.6203284
-1.854 1.799 -0.49700001 2.6307273
-1.862 1.796 -0.498 2.6345139
-1.862 1.79 -0.49700001 2.6302381
-1.896 1.8 -0.50400001 2.6624861
-1.897 1.79 -0.50300002 2.65626
-1.921 1.802 -0.509 2.6826341
-1.927 1.796 -0.509 2.6829135
-1.946 1.7970001 -0.51300001 2.6980166
-1.959 1.798 -0.51499999 2.7084515
-1.9680001 1.794 -0.51599997 2.7125111
-1.993 1.807 -0.52200001 2.7403982
0 0 0 0
0 0 0 0
0 0 0 0
0 0 0 0
0 0 0 0
0 0 0 0
0 0 0 0
-2.0650001 1.775 -0.50800002 2.7700026
-2.089 1.777 -0.51200002 2.7899451
-2.0869999 1.765 -0.50999999 2.7804484
-2.1099999 1.773 -0.51499999 2.8037214
-2.1170001 1.768 -0.51599997 2.8060238
-2.1289999 1.766 -0.51800001 2.8141999
-2.1440001 1.766 -0.51999998 2.825932
-2.164 1.766 -0.52399999 2.8418705
-2.1760001 1.7640001 -0.52600002 2.8501489
-2.207 1.778 -0.53399998 2.8839712
-2.217 1.775 -0.53500003 2.8899722
-2.221 1.766 -0.53399998 2.8873436
-2.2449999 1.768 -0.53899997 2.9079835
-2.26 1.768 -0.542 2.9201348
-2.2839999 1.775 -0.54699999 2.9438903
-2.2880001 1.767 -0.54699999 2.9421833
-2.3050001 1.768 -0.55000001 2.9565773
-2.3299999 1.763 -0.55400002 2.9738839
-2.3499999 1.773 -0.55900002 2.9964161
-2.3629999 1.771 -0.56099999 3.005816
-2.378 1.77 -0.56400001 3.0175951
-2.3989999 1.774 -0.56800002 3.0372522
-2.4219999 1.779 -0.57300001 3.0592897
-2.4389999 1.774 -0.57599998 3.0704353
-2.457 1.775 -0.579 3.0858898
-2.474 1.775 -0.58200002 3.1000042
-2.473 1.763 -0.57999998 3.0919731
-2.546 1.802 -0.59899998 3.1761804
-2.539 1.774 -0.59399998 3.1537967
-2.556 1.78 -0.59899998 3.1718035
-2.5699999 1.777 -0.60100001 3.1817966
-2.5769999 1.77 -0.60100001 3.1835561
-2.612 1.781 -0.60900003 3.219532
-2.631 1.77 -0.61199999 3.22949
-2.6530001 1.779 -0.61699998 3.2532966
-2.6619999 1.773 -0.61799997 3.2575598
-2.6889999 1.778 -0.62400001 3.2835011
-2.7090001 1.779 -0.62800002 3.3011978
-2.737 1.773 -0.63200003 3.3217647
0 0 0 0
0 0 0 0
0 0 0 0
0 0 0 0
-2.8859999 1.802 -0.63499999 3.4611306
-2.925 1.808 -0.64300001 3.4982765
-2.9489999 1.8099999 -0.648 3.520313
-2.9690001 1.8099999 -0.65200001 3.5378191
-2.9719999 1.798 -0.65100002 3.5340331
-3.0120001 1.8099999 -0.66000003 3.5754502
-3.0380001 1.813 -0.66500002 3.5998111
-3.0799999 1.819 -0.67400002 3.6399775
-3.079 1.8049999 -0.67199999 3.6317832
-3.098 1.803 -0.67500001 3.64747
-3.1270001 1.807 -0.68199998 3.6753914
-3.1400001 1.802 -0.68300003 3.684195
-3.194 1.813 -0.69499999 3.7378645
-3.22 1.8150001 -0.69999999 3.7619977
-3.2390001 1.812 -0.704 3.7775762
-3.2650001 1.814 -0.70899999 3.8017762
-3.279 1.808 -0.71100003 3.8113286
-3.313 1.807 -0.71799999 3.8414505
-3.339 1.808 -0.72299999 3.8652961
-3.3499999 1.8 -0.72399998 3.8712626
-3.3900001 1.808 -0.73299998 3.911298
-3.3989999 1.799 -0.73400003 3.9151447
-3.451 1.806 -0.745 3.9656098
-3.4749999 1.8049999 -0.74900001 3.9868095
-3.497 1.803 -0.75300002 4.0058494
-3.527 1.804 -0.759 4.0336366
-3.5739999 1.801 -0.76899999 4.075345
-3.6010001 1.8 -0.77399999 4.099546
-3.6210001 1.803 -0.778 4.1191907
-3.6489999 1.803 -0.78399998 4.1449566
-3.6989999 1.799 -0.79299998 4.1890154
-3.7290001 1.8 -0.79900002 4.2170892
-3.763 1.802 -0.80599999 4.2493539
-3.79 1.8 -0.81199998 4.2735748
-3.8440001 1.804 -0.82300001 4.325284
-3.8729999 1.803 -0.829 4.3518019
-3.898 1.8 -0.833 4.3735905
-3.925 1.7970001 -0.83899999 4.3975849
-3.9530001 1.796 -0.84399998 4.4231391
-3.9909999 1.798 -0.852 4.4594607
0 0 0 0
0 0 0 0
0 0 0 0
0 0 0 0
-4.1680002 1.789 -0.85000002 4.6146774
-4.1999998 1.7869999 -0.85600001 4.6439319
-4.2350001 1.786 -0.86299998 4.6765146
-4.2690001 1.785 -0.87 4.7082362
-4.3119998 1.779 -0.87800002 4.7464795
-4.3699999 1.786 -0.88999999 4.8040395
-4.401 1.783 -0.89600003 4.8322568
-4.4450002 1.784 -0.90499997 4.874393
-4.4780002 1.781 -0.91100001 4.9045253
-4.5430002 1.781 -0.92400002 4.9663458
-4.5890002 1.7819999 -0.93300003 5.0104828
-4.6199999 1.778 -0.93900001 5.0385914
-4.671 1.78 -0.949 5.0879507
-4.6950002 1.773 -0.954 5.10849
-4.737 1.771 -0.96200001 5.1479173
-4.7880001 1.7640001 -0.972 5.194365
-4.882 1.781 -0.99199998 5.2905526
-4.915 1.775 -0.99800003 5.3201365
-4.9679999 1.777 -1.0089999 5.3718557
-5.0469999 1.778 -1.025 5.4483132
-5.1079998 1.781 -1.038 5.5082726
-5.1620002 1.781 -1.049 5.5604506
-5.2020001 1.777 -1.057 5.5978374
-5.2410002 1.772 -1.064 5.6338406
-5.316 1.778 -1.08 5.7085495
-5.4039998 1.779 -1.098 5.7942781
-5.4689999 1.781 -1.1109999 5.8580065
-5.5079999 1.774 -1.119 5.8938355
-5.566 1.773 -1.13 5.9498563
-5.6329999 1.775 -1.1440001 6.0158167
-5.7399998 1.768 -1.166 6.1182494
0 0 0 0
0 0 0 0
0 0 0 0
0 0 0 0
0 0 0 0
0 0 0 0
0 0 0 0
-8.3360004 2.3329999 -1.653 8.8127298
-8.3400002 2.306 -1.652 8.8092194
-8.3579998 2.283 -1.654 8.8206558
-8.3879995 2.263 -1.659 8.8448849
-8.415 2.214 -1.6619999 8.8586826
-8.4390001 2.1919999 -1.666 8.8767757
-8.46 2.1830001 -1.669 8.8950911
-8.5100002 2.168 -1.679 8.9408817
-8.5670004 2.125 -1.688 8.9865713
-8.6409998 2.115 -1.702 9.0574226
-8.6890001 2.098 -1.711 9.1009808
-8.7580004 2.086 -1.724 9.1665773
-8.7910004 2.05 -1.729 9.1909533
-8.7919998 2.0209999 -1.728 9.185297
-8.8710003 2.01 -1.743 9.2613602
-9.0109997 2.0120001 -1.771 9.401207
-9.1199999 2.007 -1.793 9.5088015
-9.4820004 2.056 -1.868 9.8805313
-9.5670004 2.0280001 -1.883 9.9592152
-9.5579996 1.994 -1.88 9.9431276
-9.5699997 1.966 -1.881 9.9492817
-9.5640001 1.933 -1.8789999 9.9366608
-9.559 1.901 -1.876 9.9251022
-9.5749998 1.857 -1.878 9.9325705
-9.5810003 1.827 -1.878 9.9327936
-9.5810003 1.796 -1.877 9.9269495
-9.585 1.765 -1.876 9.9250603
-9.5839996 1.734 -1.875 9.9184389
-9.6029997 1.707 -1.878 9.9326906
-9.5939999 1.658 -1.874 9.9149218
-9.6049995 1.6289999 -1.876 9.9211407
-9.592 1.596 -1.872 9.9024277
-9.5939999 1.5650001 -1.8710001 9.8992271
-9.5979996 1.535 -1.8710001 9.898407
-9.5749998 1.485 -1.865 9.8673229
-9.5889997 1.456 -1.867 9.8769703
-9.5880003 1.425 -1.8660001 9.8712883
-9.592 1.395 -1.8660001 9.8708887
-9.5810003 1.363 -1.862 9.8549671
-9.5679998 1.3150001 -1.858 9.8350401
-9.5889997 1.2869999 -1.862 9.8525286
-9.5679998 1.2539999 -1.857 9.8268805
-9.5719995 1.224 -1.857 9.8269939
-9.566 1.1619999 -1.854 9.8130484
-9.5690002 1.132 -1.854 9.8124666
-9.5710001 1.117 -1.854 9.8126984
-9.5609999 1.085 -1.851 9.7987823
-9.5640001 1.0549999 -1.851 9.7984343
-9.5489998 0.99299997 -1.847 9.7765455
-9.5579996 0.963 -1.848 9.782527
-9.5640001 0.949 -1.849 9.7872114
-9.5609999 0.91799998 -1.847 9.7809439
-9.566 0.85799998 -1.847 9.780385
-9.5570002 0.82700002 -1.845 9.7685308
-9.5500002 0.796 -1.8430001 9.758728
-9.5719995 0.76800001 -1.847 9.7787733
-9.5600004 0.75099999 -1.844 9.7651396
-9.5539999 0.69099998 -1.842 9.7544537
-9.5509996 0.66000003 -1.841 9.7491779
-9.5410004 0.62900001 -1.839 9.7369528
-9.5550003 0.60000002 -1.841 9.7492208
-9.5550003 0.56999999 -1.841 9.7474203
-9.5629997 0.52499998 -1.842 9.7529259
-9.559 0.495 -1.841 9.7472448
-9.552 0.46399999 -1.839 9.7384768
-9.5710001 0.435 -1.8430001 9.7565317
-9.5509996 0.40400001 -1.8380001 9.7346315
-9.5690002 0.36000001 -1.841 9.7511358
-9.5480003 0.329 -1.837 9.7286749
-9.5450001 0.29899999 -1.836 9.7245731
-9.5480003 0.26899999 -1.837 9.7268305
-9.5430002 0.23899999 -1.835 9.7207613
-9.552 0.20900001 -1.837 9.7292833
-9.5249996 0.163 -1.831 9.7007599
-9.533 0.134 -1.8329999 9.7085495
-9.5340004 0.104 -1.8329999 9.7091637
-9.526 0.074000001 -1.831 9.700655
-9.5319996 0.044 -1.8329999 9.7067423
-10.179 0.003 -1.846 10.345036
-10.204 -0.028999999 -1.851 10.370567
-10.21 -0.061000001 -1.852 10.376788
-10.196 -0.093000002 -1.85 10.362894
-10.209 -0.141 -1.852 10.376582
-10.189 -0.17299999 -1.849 10.356855
-10.22 -0.206 -1.855 10.389026
-10.221 -0.23800001 -1.855 10.390693
-10.209 -0.26899999 -1.853 10.37929
-10.233 -0.31799999 -1.858 10.40517
-10.22 -0.34999999 -1.855 10.392879
-10.25 -0.384 -1.8609999 10.424647
-10.235 -0.41499999 -1.859 10.410731
-10.25 -0.44800001 -1.862 10.42738
-10.258 -0.51300001 -1.864 10.438594
-10.265 -0.52999997 -1.8660001 10.446678
-10.275 -0.56199998 -1.868 10.458531
-10.276 -0.59500003 -1.868 10.46134
-10.311 -0.662 -1.876 10.50116
-10.289 -0.69300002 -1.872 10.480846
-10.298 -0.70999998 -1.874 10.491177
-10.317 -0.74400002 -1.878 10.512893
-10.297 -0.77499998 -1.875 10.494973
-10.337 -0.84299999 -1.883 10.540869
-10.315 -0.87400001 -1.88 10.521288
-10.337 -0.90899998 -1.885 10.546709
-10.336 -0.92500001 -1.885 10.547121
-10.342 -0.991 -1.887 10.559347
-10.346 -1.024 -1.888 10.56659
-10.357 -1.058 -1.891 10.581243
-10.353 -1.091 -1.891 10.580679
-10.365 -1.109 -1.8940001 10.594826
-10.364 -1.174 -1.895 10.601028
-10.366 -1.2079999 -1.896 10.60698
-10.382 -1.243 -1.9 10.627369
-10.368 -1.274 -1.898 10.61701
-10.374 -1.308 -1.9 10.627357
-10.65 -1.3940001 -1.955 10.917315
-10.673 -1.414 -1.96 10.943213
-10.686 -1.45 -1.9630001 10.961134
-10.695 -1.4859999 -1.966 10.975262
-10.706 -1.556 -1.97 10.996385
-10.725 -1.5930001 -1.975 11.021067
-10.714 -1.626 -1.974 11.015005
-10.74 -1.648 -1.979 11.044453
-10.758 -1.6849999 -1.984 11.068426
-10.773 -1.757 -1.989 11.095076
-10.789 -1.794 -1.993 11.117239
-10.779 -1.827 -1.992 11.112733
-10.795 -1.865 -1.9960001 11.135271
-10.815 -1.921 -2.0020001 11.165235
-10.807 -1.955 -2.0020001 11.16339
-10.825 -1.993 -2.007 11.188418
-10.823 -2.0280001 -2.007 11.192773
-10.838 -2.066 -2.0120001 11.215113
-10.861 -2.1240001 -2.0179999 11.249223
-10.85 -2.1570001 -2.017 11.244708
-10.868 -2.1960001 -2.0220001 11.270507
-10.606 -2.177 -1.972 11.005242
-10.435 -2.1760001 -1.939 10.834387
-10.166 -2.152 -1.887 10.561223
0 0 0 0
-10.282 -2.2620001 -1.914 10.700446
-10.199 -2.277 -1.899 10.62123
-9.0450001 -2.046 -1.671 9.4228649
-9.0080004 -2.0680001 -1.665 9.3911085
-8.9910002 -2.108 -1.663 9.3833532
-9.0109997 -2.1429999 -1.669 9.4114885
-9.0459995 -2.181 -1.677 9.4551153
-9.1090002 -2.227 -1.691 9.5285301
-9.0930004 -2.253 -1.689 9.519001
-9.1140003 -2.3050001 -1.696 9.5527191
-10.147 -2.6029999 -1.904 10.64718
-10.163 -2.641 -1.909 10.672663
-10.157 -2.6730001 -1.909 10.674917
-10.044 -2.677 -1.888 10.564696
-10.341 -2.7920001 -1.949 10.887155
-10.528 -2.8959999 -1.99 11.098906
-10.509 -2.927 -1.988 11.088668
-10.496 -2.9590001 -1.987 11.084668
-10.489 -2.9920001 -1.987 11.086901
-10.453 -3.053 -1.984 11.068978
-10.448 -3.069 -1.984 11.068682
-10.418 -3.096 -1.98 11.047187
-10.434 -3.1370001 -1.985 11.074717
-10.396 -3.161 -1.979 11.04469
-10.374 -3.2249999 -1.979 11.042506
-10.362 -3.257 -1.979 11.040631
-10.366 -3.277 -1.98 11.050479
-10.337 -3.303 -1.977 11.030499
-10.316 -3.332 -1.974 11.019018
-10.278 -3.391 -1.971 11.000955
-10.271 -3.425 -1.972 11.005128
-10.247 -3.4349999 -1.9680001 10.985138
-10.236 -3.467 -1.9680001 10.984936
-10.21 -3.53 -1.967 10.980623
-10.175 -3.553 -1.962 10.954628
-10.168 -3.5869999 -1.9630001 10.959387
-10.154 -3.618 -1.9630001 10.956597
-10.11 -3.6559999 -1.957 10.927409
-10.089 -3.684 -1.955 10.917042
-10.077 -3.7160001 -1.955 10.916803
-10.067 -3.7479999 -1.955 10.918517
-10.05 -3.777 -1.954 10.912669
-10.02 -3.802 -1.95 10.89303
-10.009 -3.852 -1.952 10.900839
-9.9729996 -3.8740001 -1.947 10.874714
-9.9499998 -3.901 -1.9450001 10.862933
-9.934 -3.931 -1.944 10.858925
-9.9090004 -3.957 -1.941 10.844981
-9.8950005 -3.987 -1.941 10.843186
-9.8559999 -4.026 -1.937 10.821339
-9.8299999 -4.0510001 -1.934 10.806473
-9.8249998 -4.085 -1.936 10.81508
-9.7849998 -4.105 -1.9299999 10.785275
-9.7700005 -4.1350002 -1.929 10.782958
-9.7469997 -4.1789999 -1.929 10.779104
-9.7159996 -4.2020001 -1.925 10.759325
-9.7200003 -4.2399998 -1.929 10.778545
-9.6759996 -4.257 -1.9220001 10.744352
-9.6739998 -4.2919998 -1.925 10.757006
-9.651 -4.3189998 -1.923 10.74679
-9.6199999 -4.3590002 -1.92 10.734602
-9.6120005 -4.3920002 -1.9220001 10.741243
-9.585 -4.4159999 -1.919 10.726409
-9.5799999 -4.4510002 -1.921 10.736761
-9.559 -4.4959998 -1.921 10.736794
-9.54 -4.5229998 -1.92 10.731054
-9.5310001 -4.5560002 -1.921 10.737194
-9.5019999 -4.579 -1.918 10.720726
-9.4829998 -4.6059999 -1.9170001 10.715288
-9.4499998 -4.664 -1.916 10.711043
-9.4300003 -4.6719999 -1.913 10.696357
-9.4090004 -4.698 -1.9119999 10.689071
-9.3730001 -4.717 -1.9069999 10.66489
-9.3520002 -4.7810001 -1.909 10.675305
-9.3330002 -4.8080001 -1.908 10.670624
-9.316 -4.8369999 -1.908 10.668875
-9.3000002 -4.8470001 -1.906 10.659092
-9.2670002 -4.8670001 -1.902 10.638731
-9.2399998 -4.927 -1.903 10.643042
-9.2229996 -4.9549999 -1.903 10.641294
-9.1949997 -4.9770002 -1.9 10.626784
-9.1610003 -4.9959998 -1.896 10.6056
-9.1450005 -5.0430002 -1.898 10.61439
-9.1230001 -5.0679998 -1.896 10.607006
-9.0979996 -5.092 -1.8940001 10.596664
-9.0799999 -5.1199999 -1.8940001 10.594717
-9.0760002 -5.1550002 -1.896 10.608611
-9.0299997 -5.1849999 -1.891 10.583053
-8.9879999 -5.1989999 -1.886 10.553234
-8.9549999 -5.217 -1.882 10.53333
-8.908 -5.2270002 -1.875 10.497125
-8.8690004 -5.2420001 -1.87 10.470656
-8.7959995 -5.2350001 -1.857 10.403042
-8.6940002 -5.23 -1.84 10.311359
-8.6440001 -5.237 -1.832 10.271375
-8.5869999 -5.2389998 -1.823 10.222867
-8.5290003 -5.2410002 -1.814 10.173619
-8.4750004 -5.244 -1.8049999 10.128336
-8.3769999 -5.2379999 -1.788 10.040304
-8.3210001 -5.2389998 -1.779 9.992547
-8.2700005 -5.243 -1.771 9.950799
-8.224 -5.25 -1.765 9.9152365
-8.1660004 -5.2490001 -1.755 9.8648663
